ply
    format ascii 1.0
    element vertex 63326
    property float x
    property float y
    property float z
    end_header
0.0860 0.0219 0.7120
0.0882 0.0219 0.7110
0.0905 0.0218 0.7100
0.0927 0.0218 0.7090
0.0949 0.0218 0.7080
0.0971 0.0217 0.7070
0.0992 0.0217 0.7060
0.1016 0.0217 0.7060
0.1037 0.0217 0.7050
0.1059 0.0216 0.7040
0.1081 0.0216 0.7030
0.1104 0.0216 0.7030
0.1125 0.0216 0.7020
0.1148 0.0216 0.7020
0.1170 0.0215 0.7010
0.1193 0.0215 0.7010
0.1214 0.0215 0.7000
0.1237 0.0215 0.7000
0.1259 0.0215 0.6990
0.1280 0.0215 0.6980
0.1301 0.0214 0.6970
0.1324 0.0214 0.6970
0.1347 0.0214 0.6970
0.1370 0.0214 0.6970
0.1393 0.0214 0.6970
0.1420 0.0215 0.6990
0.1445 0.0215 0.7000
0.1472 0.0216 0.7020
0.1499 0.0216 0.7040
0.1525 0.0217 0.7050
0.1552 0.0217 0.7070
0.1571 0.0217 0.7050
0.1597 0.0217 0.7060
0.2737 0.0367 1.1930
0.2758 0.0364 1.1850
0.2783 0.0362 1.1790
0.2805 0.0360 1.1720
0.2829 0.0358 1.1660
0.2847 0.0356 1.1580
0.2865 0.0353 1.1500
0.2878 0.0350 1.1400
0.2890 0.0347 1.1300
0.2896 0.0344 1.1180
0.2901 0.0340 1.1060
0.2906 0.0336 1.0940
0.2942 0.0336 1.0940
0.2760 0.0312 1.0140
0.2774 0.0310 1.0070
0.2796 0.0308 1.0030
0.2807 0.0306 0.9950
0.2817 0.0303 0.9870
0.2832 0.0302 0.9810
0.2852 0.0300 0.9770
0.2873 0.0299 0.9730
0.2893 0.0298 0.9690
0.2916 0.0297 0.9660
0.2938 0.0296 0.9630
0.2961 0.0295 0.9600
0.2983 0.0294 0.9570
0.3005 0.0293 0.9540
0.3027 0.0292 0.9510
0.3049 0.0291 0.9480
0.3070 0.0290 0.9450
0.3088 0.0289 0.9410
0.3109 0.0288 0.9380
0.3130 0.0287 0.9350
0.3150 0.0286 0.9320
0.3171 0.0286 0.9290
0.3191 0.0285 0.9260
0.3208 0.0283 0.9220
0.3224 0.0282 0.9180
0.3244 0.0281 0.9150
0.3259 0.0280 0.9110
0.3279 0.0279 0.9080
0.3294 0.0278 0.9040
0.3313 0.0277 0.9010
0.3327 0.0276 0.8970
0.3346 0.0275 0.8940
0.3368 0.0274 0.8920
0.3385 0.0273 0.8890
0.3403 0.0272 0.8860
0.3425 0.0272 0.8840
0.3442 0.0271 0.8810
0.3463 0.0270 0.8790
0.3480 0.0269 0.8760
0.3497 0.0268 0.8730
0.3518 0.0268 0.8710
0.3534 0.0267 0.8680
0.3554 0.0266 0.8660
0.3575 0.0266 0.8640
0.3595 0.0265 0.8620
0.3615 0.0264 0.8600
0.3630 0.0263 0.8570
0.3673 0.0258 0.8410
0.3701 0.0258 0.8410
0.2803 0.0189 0.6140
0.2819 0.0188 0.6130
0.2834 0.0188 0.6120
0.2840 0.0187 0.6090
0.2851 0.0187 0.6070
0.2861 0.0186 0.6050
0.2872 0.0185 0.6030
0.2882 0.0185 0.6010
0.2892 0.0184 0.5990
0.2907 0.0184 0.5980
0.2917 0.0183 0.5960
0.2927 0.0183 0.5940
0.2941 0.0182 0.5930
0.2956 0.0182 0.5920
0.2970 0.0182 0.5910
0.2985 0.0181 0.5900
-1.8414 0.1152 3.3850
-1.8319 0.1153 3.3880
-1.8239 0.1155 3.3940
-1.8165 0.1157 3.4010
-1.8106 0.1161 3.4110
-1.8062 0.1165 3.4240
-1.8028 0.1170 3.4390
-1.8004 0.1176 3.4560
-1.7988 0.1182 3.4750
-1.7977 0.1189 3.4950
-1.7969 0.1196 3.5160
-1.7965 0.1204 3.5380
-1.7965 0.1212 3.5610
-1.7973 0.1220 3.5860
-1.7994 0.1230 3.6140
-1.8029 0.1240 3.6450
-1.8071 0.1251 3.6780
-1.8111 0.1263 3.7110
-1.8168 0.1275 3.7480
-1.8199 0.1286 3.7800
-1.8223 0.1297 3.8110
-1.8202 0.1304 3.8330
-1.8146 0.1309 3.8480
-1.8052 0.1312 3.8550
-1.7958 0.1314 3.8620
-1.7794 0.1311 3.8540
-1.7557 0.1303 3.8300
-1.7345 0.1297 3.8110
-1.7129 0.1290 3.7910
-1.6838 0.1277 3.7540
-1.6621 0.1270 3.7330
-1.6436 0.1265 3.7190
-0.3834 0.0322 0.9450
-0.3799 0.0321 0.9440
-0.3760 0.0321 0.9420
-0.3721 0.0320 0.9400
-0.3686 0.0320 0.9390
-0.3652 0.0319 0.9380
-0.3621 0.0319 0.9380
-0.3590 0.0319 0.9380
-0.3559 0.0319 0.9380
-0.3524 0.0319 0.9370
-0.3494 0.0319 0.9370
-0.3463 0.0319 0.9370
-0.3432 0.0319 0.9370
-0.3401 0.0319 0.9370
-0.3370 0.0319 0.9370
-0.3339 0.0319 0.9370
-0.3309 0.0319 0.9370
-0.3278 0.0319 0.9370
-0.3250 0.0319 0.9380
-0.3219 0.0319 0.9380
-0.3192 0.0320 0.9390
-0.3161 0.0320 0.9390
-0.3133 0.0320 0.9400
-0.3106 0.0320 0.9410
-0.3078 0.0321 0.9420
-0.3050 0.0321 0.9430
-0.3019 0.0321 0.9430
-0.2991 0.0321 0.9440
-0.2964 0.0322 0.9450
-0.2932 0.0322 0.9450
-0.2904 0.0322 0.9460
-0.2870 0.0322 0.9450
-0.2839 0.0322 0.9450
-0.2805 0.0321 0.9440
-0.2771 0.0321 0.9430
-0.2737 0.0321 0.9420
-0.2700 0.0320 0.9400
-0.2664 0.0319 0.9380
-0.2624 0.0318 0.9350
-0.2588 0.0317 0.9330
-0.2549 0.0316 0.9300
-0.2511 0.0315 0.9270
-0.2472 0.0314 0.9240
-0.2436 0.0314 0.9220
-0.2398 0.0313 0.9190
-0.2363 0.0312 0.9170
-0.2327 0.0311 0.9150
-0.2290 0.0310 0.9120
-0.2255 0.0310 0.9100
-0.2218 0.0309 0.9070
-0.2183 0.0308 0.9050
-0.2146 0.0307 0.9020
-0.2112 0.0306 0.9000
-0.2075 0.0305 0.8970
-0.2041 0.0305 0.8950
-0.2007 0.0304 0.8930
-0.1973 0.0303 0.8910
-0.1937 0.0302 0.8880
-0.1904 0.0301 0.8860
-0.1870 0.0301 0.8840
-0.1837 0.0300 0.8820
-0.1804 0.0299 0.8800
-0.1773 0.0299 0.8790
-0.1740 0.0298 0.8770
-0.1709 0.0298 0.8760
-0.1680 0.0298 0.8760
-0.1650 0.0298 0.8750
-0.1619 0.0297 0.8740
-0.1590 0.0297 0.8740
-0.1560 0.0297 0.8730
-0.1529 0.0297 0.8720
-0.1499 0.0296 0.8710
-0.1469 0.0296 0.8700
-0.1438 0.0296 0.8690
-0.1406 0.0295 0.8670
-0.1376 0.0295 0.8660
-0.1345 0.0294 0.8640
-0.1315 0.0294 0.8630
-0.1283 0.0293 0.8610
-0.1252 0.0292 0.8590
-0.1221 0.0292 0.8570
-0.1189 0.0291 0.8540
-0.1156 0.0290 0.8510
-0.1126 0.0289 0.8490
-0.1094 0.0288 0.8460
-0.1064 0.0287 0.8440
-0.1033 0.0287 0.8420
-0.1003 0.0286 0.8400
-0.0974 0.0285 0.8390
-0.0945 0.0285 0.8370
-0.0916 0.0284 0.8360
-0.0887 0.0284 0.8350
-0.0860 0.0284 0.8350
-0.0831 0.0284 0.8340
-0.0803 0.0283 0.8330
-0.0775 0.0283 0.8320
-0.0746 0.0283 0.8310
-0.0718 0.0282 0.8300
-0.0690 0.0282 0.8290
-0.0663 0.0282 0.8290
-0.0635 0.0282 0.8280
-0.0607 0.0281 0.8270
-0.0579 0.0281 0.8260
-0.0551 0.0281 0.8250
-0.0523 0.0280 0.8240
-0.0495 0.0280 0.8220
-0.0467 0.0279 0.8210
-0.0440 0.0279 0.8200
-0.0412 0.0278 0.8180
-0.0384 0.0278 0.8170
-0.0356 0.0277 0.8150
-0.0329 0.0277 0.8140
-0.0302 0.0277 0.8130
-0.0275 0.0276 0.8120
-0.0248 0.0276 0.8110
-0.0221 0.0276 0.8110
-0.0195 0.0276 0.8110
-0.0168 0.0276 0.8100
-0.0141 0.0276 0.8100
-0.0114 0.0276 0.8100
-0.0088 0.0276 0.8100
-0.0061 0.0275 0.8090
-0.0034 0.0275 0.8090
-0.0008 0.0275 0.8080
0.0019 0.0275 0.8070
0.0045 0.0274 0.8060
0.0072 0.0274 0.8040
0.0098 0.0273 0.8020
0.0124 0.0272 0.8000
0.0150 0.0272 0.7980
0.0176 0.0271 0.7960
0.0201 0.0270 0.7940
0.0227 0.0269 0.7910
0.0252 0.0268 0.7890
0.0277 0.0267 0.7860
0.0302 0.0266 0.7830
0.0326 0.0265 0.7790
0.0350 0.0264 0.7760
0.0374 0.0263 0.7720
0.0397 0.0261 0.7680
0.0420 0.0260 0.7630
0.0442 0.0258 0.7580
0.0464 0.0256 0.7530
0.0485 0.0255 0.7480
0.0506 0.0253 0.7430
0.0527 0.0251 0.7380
0.0548 0.0249 0.7330
0.0568 0.0248 0.7280
0.0589 0.0246 0.7240
0.0610 0.0245 0.7210
0.0631 0.0244 0.7180
0.0653 0.0244 0.7160
0.0675 0.0243 0.7140
0.0697 0.0243 0.7130
0.0720 0.0242 0.7120
0.0742 0.0242 0.7110
0.0765 0.0242 0.7110
0.0788 0.0242 0.7100
0.0811 0.0242 0.7100
0.0834 0.0242 0.7100
0.0857 0.0241 0.7090
0.0879 0.0241 0.7080
0.0901 0.0241 0.7070
0.0923 0.0240 0.7060
0.0945 0.0240 0.7050
0.0966 0.0240 0.7040
0.0988 0.0239 0.7030
0.1010 0.0239 0.7020
0.1032 0.0239 0.7010
0.1053 0.0238 0.7000
0.1075 0.0238 0.6990
0.1098 0.0238 0.6990
0.1119 0.0238 0.6980
0.1140 0.0237 0.6970
0.1162 0.0237 0.6960
0.1184 0.0237 0.6960
0.1206 0.0236 0.6950
0.1227 0.0236 0.6940
0.1248 0.0236 0.6930
0.1269 0.0235 0.6920
0.1292 0.0235 0.6920
0.1312 0.0235 0.6910
0.1335 0.0235 0.6910
0.1358 0.0235 0.6910
0.1381 0.0235 0.6910
0.1405 0.0235 0.6920
0.1432 0.0236 0.6940
0.1459 0.0237 0.6960
0.1487 0.0238 0.6980
0.1514 0.0238 0.7000
0.1541 0.0239 0.7020
0.1564 0.0239 0.7020
0.1590 0.0239 0.7030
0.1613 0.0239 0.7030
0.2751 0.0402 1.1820
0.2778 0.0400 1.1770
0.2805 0.0399 1.1720
0.2829 0.0397 1.1660
0.2850 0.0394 1.1590
0.2870 0.0392 1.1520
0.2886 0.0389 1.1430
0.2898 0.0386 1.1330
0.2906 0.0382 1.1220
0.2912 0.0378 1.1100
0.2914 0.0373 1.0970
0.2937 0.0372 1.0920
0.2807 0.0343 1.0070
0.2815 0.0340 0.9980
0.2825 0.0337 0.9900
0.2838 0.0334 0.9830
0.2855 0.0333 0.9780
0.2873 0.0331 0.9730
0.2896 0.0330 0.9700
0.2916 0.0329 0.9660
0.2938 0.0328 0.9630
0.2961 0.0327 0.9600
0.2983 0.0326 0.9570
0.3005 0.0325 0.9540
0.3027 0.0324 0.9510
0.3049 0.0323 0.9480
0.3070 0.0322 0.9450
0.3091 0.0321 0.9420
0.3112 0.0320 0.9390
0.3133 0.0318 0.9360
0.3154 0.0317 0.9330
0.3171 0.0316 0.9290
0.3191 0.0315 0.9260
0.3208 0.0314 0.9220
0.3227 0.0313 0.9190
0.3244 0.0311 0.9150
0.3259 0.0310 0.9110
0.3279 0.0309 0.9080
0.3294 0.0308 0.9040
0.3313 0.0307 0.9010
0.3331 0.0306 0.8980
0.3349 0.0305 0.8950
0.3368 0.0304 0.8920
0.3385 0.0302 0.8890
0.3407 0.0302 0.8870
0.3425 0.0301 0.8840
0.3442 0.0300 0.8810
0.3463 0.0299 0.8790
0.3480 0.0298 0.8760
0.3497 0.0297 0.8730
0.3514 0.0296 0.8700
0.3530 0.0295 0.8670
0.3550 0.0294 0.8650
0.3570 0.0294 0.8630
0.3586 0.0293 0.8600
0.3606 0.0292 0.8580
0.3626 0.0291 0.8560
0.3633 0.0290 0.8510
0.3648 0.0289 0.8480
0.3663 0.0288 0.8450
0.3678 0.0287 0.8420
0.3701 0.0286 0.8410
0.3724 0.0286 0.8400
0.2823 0.0209 0.6140
0.2839 0.0209 0.6130
0.2851 0.0207 0.6070
0.2861 0.0206 0.6050
0.2872 0.0205 0.6030
0.2882 0.0204 0.6010
0.2897 0.0204 0.6000
0.2907 0.0203 0.5980
0.2917 0.0203 0.5960
0.2932 0.0202 0.5950
0.2941 0.0202 0.5930
0.2956 0.0201 0.5920
0.2970 0.0201 0.5910
0.2985 0.0201 0.5900
-1.8354 0.1259 3.3740
-1.8259 0.1260 3.3770
-1.8180 0.1262 3.3830
-1.8106 0.1265 3.3900
-1.8048 0.1269 3.4000
-1.7999 0.1273 3.4120
-1.7966 0.1279 3.4270
-1.7946 0.1286 3.4450
-1.7937 0.1293 3.4650
-1.7931 0.1301 3.4860
-1.7928 0.1309 3.5080
-1.7925 0.1317 3.5300
-1.7929 0.1326 3.5540
-1.7938 0.1336 3.5790
-1.7964 0.1346 3.6080
-1.7999 0.1358 3.6390
-1.8046 0.1371 3.6730
-1.8091 0.1383 3.7070
-1.8168 0.1399 3.7480
-1.8194 0.1410 3.7790
-1.8242 0.1424 3.8150
-1.8216 0.1432 3.8360
-1.8170 0.1438 3.8530
-1.8081 0.1441 3.8610
-1.8023 0.1446 3.8760
-1.7863 0.1444 3.8690
-1.7594 0.1432 3.8380
-1.7390 0.1426 3.8210
-1.7188 0.1420 3.8040
-0.4059 0.0356 0.9540
-0.4028 0.0356 0.9540
-0.3996 0.0356 0.9540
-0.3957 0.0355 0.9520
-0.3921 0.0355 0.9510
-0.3878 0.0354 0.9480
-0.3834 0.0353 0.9450
-0.3795 0.0352 0.9430
-0.3756 0.0351 0.9410
-0.3717 0.0350 0.9390
-0.3683 0.0350 0.9380
-0.3648 0.0350 0.9370
-0.3613 0.0349 0.9360
-0.3582 0.0349 0.9360
-0.3548 0.0349 0.9350
-0.3517 0.0349 0.9350
-0.3486 0.0349 0.9350
-0.3455 0.0349 0.9350
-0.3425 0.0349 0.9350
-0.3394 0.0349 0.9350
-0.3363 0.0349 0.9350
-0.3332 0.0349 0.9350
-0.3301 0.0349 0.9350
-0.3271 0.0349 0.9350
-0.3243 0.0349 0.9360
-0.3213 0.0349 0.9360
-0.3185 0.0350 0.9370
-0.3158 0.0350 0.9380
-0.3127 0.0350 0.9380
-0.3099 0.0350 0.9390
-0.3072 0.0351 0.9400
-0.3044 0.0351 0.9410
-0.3016 0.0352 0.9420
-0.2988 0.0352 0.9430
-0.2960 0.0352 0.9440
-0.2932 0.0353 0.9450
-0.2901 0.0353 0.9450
-0.2870 0.0353 0.9450
-0.2839 0.0353 0.9450
-0.2805 0.0352 0.9440
-0.2771 0.0352 0.9430
-0.2737 0.0352 0.9420
-0.2700 0.0351 0.9400
-0.2664 0.0350 0.9380
-0.2624 0.0349 0.9350
-0.2588 0.0348 0.9330
-0.2549 0.0347 0.9300
-0.2511 0.0346 0.9270
-0.2472 0.0345 0.9240
-0.2436 0.0344 0.9220
-0.2398 0.0343 0.9190
-0.2360 0.0342 0.9160
-0.2325 0.0341 0.9140
-0.2287 0.0340 0.9110
-0.2252 0.0339 0.9090
-0.2215 0.0338 0.9060
-0.2178 0.0337 0.9030
-0.2144 0.0336 0.9010
-0.2107 0.0335 0.8980
-0.2073 0.0334 0.8960
-0.2039 0.0334 0.8940
-0.2005 0.0333 0.8920
-0.1969 0.0332 0.8890
-0.1935 0.0331 0.8870
-0.1902 0.0330 0.8850
-0.1868 0.0330 0.8830
-0.1835 0.0329 0.8810
-0.1802 0.0328 0.8790
-0.1771 0.0328 0.8780
-0.1740 0.0327 0.8770
-0.1709 0.0327 0.8760
-0.1679 0.0327 0.8750
-0.1648 0.0326 0.8740
-0.1619 0.0326 0.8740
-0.1589 0.0326 0.8730
-0.1558 0.0325 0.8720
-0.1528 0.0325 0.8710
-0.1499 0.0325 0.8710
-0.1467 0.0324 0.8690
-0.1437 0.0324 0.8680
-0.1406 0.0324 0.8670
-0.1376 0.0323 0.8660
-0.1345 0.0322 0.8640
-0.1313 0.0322 0.8620
-0.1283 0.0321 0.8610
-0.1252 0.0321 0.8590
-0.1220 0.0319 0.8560
-0.1189 0.0319 0.8540
-0.1156 0.0318 0.8510
-0.1124 0.0316 0.8480
-0.1094 0.0316 0.8460
-0.1062 0.0315 0.8430
-0.1032 0.0314 0.8410
-0.1002 0.0313 0.8390
-0.0973 0.0313 0.8380
-0.0945 0.0312 0.8370
-0.0916 0.0312 0.8360
-0.0887 0.0312 0.8350
-0.0859 0.0311 0.8340
-0.0830 0.0311 0.8330
-0.0802 0.0310 0.8320
-0.0775 0.0310 0.8320
-0.0746 0.0310 0.8310
-0.0718 0.0310 0.8300
-0.0690 0.0309 0.8290
-0.0662 0.0309 0.8280
-0.0634 0.0309 0.8270
-0.0606 0.0308 0.8260
-0.0578 0.0308 0.8250
-0.0550 0.0308 0.8240
-0.0522 0.0307 0.8230
-0.0495 0.0307 0.8220
-0.0467 0.0306 0.8210
-0.0439 0.0306 0.8190
-0.0412 0.0305 0.8180
-0.0384 0.0305 0.8170
-0.0356 0.0304 0.8150
-0.0329 0.0304 0.8140
-0.0302 0.0303 0.8130
-0.0275 0.0303 0.8120
-0.0248 0.0303 0.8110
-0.0221 0.0303 0.8110
-0.0195 0.0303 0.8110
-0.0168 0.0302 0.8100
-0.0141 0.0302 0.8100
-0.0114 0.0302 0.8100
-0.0088 0.0302 0.8090
-0.0061 0.0302 0.8090
-0.0034 0.0302 0.8080
-0.0008 0.0301 0.8070
0.0019 0.0301 0.8060
0.0045 0.0300 0.8040
0.0072 0.0300 0.8030
0.0098 0.0299 0.8010
0.0124 0.0298 0.7990
0.0150 0.0297 0.7970
0.0176 0.0297 0.7950
0.0201 0.0296 0.7920
0.0226 0.0295 0.7900
0.0252 0.0294 0.7870
0.0277 0.0293 0.7850
0.0301 0.0292 0.7820
0.0325 0.0290 0.7780
0.0349 0.0289 0.7740
0.0373 0.0287 0.7700
0.0396 0.0286 0.7660
0.0419 0.0284 0.7610
0.0441 0.0282 0.7560
0.0462 0.0280 0.7510
0.0484 0.0278 0.7460
0.0504 0.0276 0.7400
0.0525 0.0274 0.7350
0.0546 0.0272 0.7300
0.0566 0.0271 0.7250
0.0586 0.0269 0.7210
0.0608 0.0268 0.7180
0.0629 0.0267 0.7150
0.0650 0.0266 0.7130
0.0673 0.0266 0.7120
0.0694 0.0265 0.7100
0.0718 0.0265 0.7100
0.0740 0.0265 0.7090
0.0762 0.0264 0.7080
0.0785 0.0264 0.7080
0.0809 0.0264 0.7080
0.0831 0.0264 0.7070
0.0853 0.0263 0.7060
0.0876 0.0263 0.7060
0.0898 0.0263 0.7050
0.0920 0.0263 0.7040
0.0942 0.0262 0.7030
0.0964 0.0262 0.7020
0.0985 0.0262 0.7010
0.1007 0.0261 0.7000
0.1027 0.0260 0.6980
0.1049 0.0260 0.6970
0.1070 0.0260 0.6960
0.1091 0.0259 0.6950
0.1113 0.0259 0.6940
0.1134 0.0259 0.6930
0.1155 0.0258 0.6920
0.1176 0.0258 0.6910
0.1197 0.0257 0.6900
0.1218 0.0257 0.6890
0.1239 0.0257 0.6880
0.1260 0.0256 0.6870
0.1280 0.0256 0.6860
0.1303 0.0256 0.6860
0.1324 0.0256 0.6850
0.1346 0.0256 0.6850
0.1371 0.0256 0.6860
0.1395 0.0256 0.6870
0.1420 0.0257 0.6880
0.1447 0.0257 0.6900
0.1474 0.0258 0.6920
0.1503 0.0259 0.6950
0.1530 0.0260 0.6970
0.1555 0.0260 0.6980
0.1583 0.0261 0.7000
0.1606 0.0261 0.7000
0.2748 0.0441 1.1810
0.2775 0.0439 1.1760
0.2802 0.0437 1.1710
0.2829 0.0435 1.1660
0.2850 0.0433 1.1590
0.2870 0.0430 1.1520
0.2888 0.0427 1.1440
0.2900 0.0423 1.1340
0.2909 0.0419 1.1230
0.2912 0.0414 1.1100
0.2911 0.0409 1.0960
0.2918 0.0405 1.0850
0.2883 0.0395 1.0590
0.2865 0.0388 1.0400
0.2830 0.0379 1.0150
0.2829 0.0374 1.0030
0.2834 0.0371 0.9930
0.2843 0.0368 0.9850
0.2858 0.0365 0.9790
0.2876 0.0363 0.9740
0.2896 0.0362 0.9700
0.2919 0.0361 0.9670
0.2941 0.0360 0.9640
0.2961 0.0358 0.9600
0.2983 0.0357 0.9570
0.3005 0.0356 0.9540
0.3030 0.0355 0.9520
0.3049 0.0354 0.9480
0.3070 0.0353 0.9450
0.3091 0.0352 0.9420
0.3112 0.0350 0.9390
0.3133 0.0349 0.9360
0.3154 0.0348 0.9330
0.3174 0.0347 0.9300
0.3191 0.0346 0.9260
0.3211 0.0344 0.9230
0.3227 0.0343 0.9190
0.3244 0.0341 0.9150
0.3263 0.0340 0.9120
0.3279 0.0339 0.9080
0.3294 0.0337 0.9040
0.3313 0.0336 0.9010
0.3331 0.0335 0.8980
0.3349 0.0334 0.8950
0.3368 0.0333 0.8920
0.3385 0.0332 0.8890
0.3407 0.0331 0.8870
0.3425 0.0330 0.8840
0.3442 0.0329 0.8810
0.3459 0.0328 0.8780
0.3480 0.0327 0.8760
0.3497 0.0326 0.8730
0.3514 0.0325 0.8700
0.3530 0.0324 0.8670
0.3546 0.0322 0.8640
0.3566 0.0322 0.8620
0.3582 0.0321 0.8590
0.3602 0.0320 0.8570
0.3618 0.0319 0.8540
0.3629 0.0317 0.8500
0.3648 0.0316 0.8480
0.3663 0.0315 0.8450
0.3678 0.0314 0.8420
0.3701 0.0314 0.8410
0.3720 0.0313 0.8390
0.3743 0.0313 0.8380
0.2872 0.0225 0.6030
0.2882 0.0224 0.6010
0.2897 0.0224 0.6000
0.2907 0.0223 0.5980
0.2917 0.0222 0.5960
0.2927 0.0222 0.5940
0.2941 0.0221 0.5930
0.2951 0.0221 0.5910
0.2965 0.0220 0.5900
0.2985 0.0220 0.5900
-1.8294 0.1366 3.3630
-1.8205 0.1367 3.3670
-1.8121 0.1369 3.3720
-1.8047 0.1372 3.3790
-1.7984 0.1376 3.3880
-1.7936 0.1381 3.4000
-1.7903 0.1387 3.4150
-1.7884 0.1394 3.4330
-1.7875 0.1402 3.4530
-1.7874 0.1411 3.4750
-1.7877 0.1421 3.4980
-1.7879 0.1430 3.5210
-1.7879 0.1439 3.5440
-1.7893 0.1450 3.5700
-1.7915 0.1461 3.5980
-1.7950 0.1474 3.6290
-1.8002 0.1488 3.6640
-1.8043 0.1501 3.6970
-1.8144 0.1520 3.7430
-1.8170 0.1533 3.7740
-1.8242 0.1549 3.8150
-1.8211 0.1557 3.8350
-1.8084 0.1579 3.8890
-1.7933 0.1577 3.8840
-0.4078 0.0386 0.9510
-0.4055 0.0387 0.9530
-0.4024 0.0387 0.9530
-0.3988 0.0387 0.9520
-0.3953 0.0386 0.9510
-0.3917 0.0386 0.9500
-0.3878 0.0385 0.9480
-0.3834 0.0384 0.9450
-0.3795 0.0383 0.9430
-0.3752 0.0382 0.9400
-0.3713 0.0381 0.9380
-0.3679 0.0381 0.9370
-0.3640 0.0380 0.9350
-0.3609 0.0380 0.9350
-0.3575 0.0379 0.9340
-0.3540 0.0379 0.9330
-0.3509 0.0379 0.9330
-0.3479 0.0379 0.9330
-0.3448 0.0379 0.9330
-0.3417 0.0379 0.9330
-0.3387 0.0379 0.9330
-0.3356 0.0379 0.9330
-0.3325 0.0379 0.9330
-0.3294 0.0379 0.9330
-0.3267 0.0379 0.9340
-0.3236 0.0379 0.9340
-0.3209 0.0380 0.9350
-0.3178 0.0380 0.9350
-0.3151 0.0380 0.9360
-0.3123 0.0381 0.9370
-0.3096 0.0381 0.9380
-0.3068 0.0381 0.9390
-0.3041 0.0382 0.9400
-0.3013 0.0382 0.9410
-0.2985 0.0383 0.9420
-0.2957 0.0383 0.9430
-0.2929 0.0383 0.9440
-0.2898 0.0383 0.9440
-0.2870 0.0384 0.9450
-0.2836 0.0383 0.9440
-0.2805 0.0383 0.9440
-0.2771 0.0383 0.9430
-0.2734 0.0382 0.9410
-0.2700 0.0382 0.9400
-0.2664 0.0381 0.9380
-0.2627 0.0380 0.9360
-0.2588 0.0379 0.9330
-0.2549 0.0378 0.9300
-0.2511 0.0376 0.9270
-0.2472 0.0375 0.9240
-0.2434 0.0374 0.9210
-0.2398 0.0373 0.9190
-0.2360 0.0372 0.9160
-0.2322 0.0371 0.9130
-0.2285 0.0370 0.9100
-0.2250 0.0369 0.9080
-0.2213 0.0368 0.9050
-0.2176 0.0366 0.9020
-0.2141 0.0365 0.9000
-0.2105 0.0364 0.8970
-0.2070 0.0363 0.8950
-0.2036 0.0363 0.8930
-0.2000 0.0361 0.8900
-0.1967 0.0361 0.8880
-0.1933 0.0360 0.8860
-0.1899 0.0359 0.8840
-0.1866 0.0358 0.8820
-0.1833 0.0357 0.8800
-0.1800 0.0357 0.8780
-0.1769 0.0356 0.8770
-0.1738 0.0356 0.8760
-0.1707 0.0355 0.8750
-0.1677 0.0355 0.8740
-0.1648 0.0355 0.8740
-0.1617 0.0355 0.8730
-0.1589 0.0355 0.8730
-0.1558 0.0354 0.8720
-0.1528 0.0354 0.8710
-0.1497 0.0353 0.8700
-0.1467 0.0353 0.8690
-0.1437 0.0352 0.8680
-0.1406 0.0352 0.8670
-0.1375 0.0351 0.8650
-0.1345 0.0351 0.8640
-0.1313 0.0350 0.8620
-0.1282 0.0349 0.8600
-0.1251 0.0348 0.8580
-0.1220 0.0348 0.8560
-0.1189 0.0347 0.8540
-0.1156 0.0346 0.8510
-0.1124 0.0344 0.8480
-0.1094 0.0344 0.8460
-0.1062 0.0342 0.8430
-0.1032 0.0342 0.8410
-0.1002 0.0341 0.8390
-0.0973 0.0340 0.8380
-0.0943 0.0339 0.8360
-0.0915 0.0339 0.8350
-0.0887 0.0339 0.8350
-0.0859 0.0339 0.8340
-0.0830 0.0338 0.8330
-0.0802 0.0338 0.8320
-0.0774 0.0337 0.8310
-0.0745 0.0337 0.8300
-0.0718 0.0337 0.8300
-0.0690 0.0337 0.8290
-0.0662 0.0336 0.8280
-0.0634 0.0336 0.8270
-0.0606 0.0335 0.8260
-0.0578 0.0335 0.8250
-0.0550 0.0335 0.8240
-0.0522 0.0334 0.8230
-0.0495 0.0334 0.8220
-0.0467 0.0333 0.8200
-0.0439 0.0333 0.8190
-0.0412 0.0332 0.8180
-0.0384 0.0332 0.8170
-0.0356 0.0331 0.8150
-0.0329 0.0331 0.8140
-0.0302 0.0330 0.8130
-0.0275 0.0330 0.8120
-0.0248 0.0330 0.8120
-0.0221 0.0329 0.8110
-0.0195 0.0329 0.8110
-0.0168 0.0329 0.8100
-0.0141 0.0329 0.8100
-0.0114 0.0329 0.8100
-0.0088 0.0329 0.8090
-0.0061 0.0328 0.8080
-0.0034 0.0328 0.8070
-0.0008 0.0327 0.8060
0.0019 0.0327 0.8050
0.0045 0.0326 0.8030
0.0072 0.0326 0.8020
0.0098 0.0325 0.8000
0.0124 0.0324 0.7980
0.0150 0.0323 0.7960
0.0175 0.0322 0.7930
0.0201 0.0321 0.7910
0.0226 0.0320 0.7890
0.0251 0.0319 0.7860
0.0276 0.0318 0.7840
0.0301 0.0317 0.7810
0.0325 0.0316 0.7770
0.0349 0.0314 0.7730
0.0372 0.0312 0.7690
0.0395 0.0310 0.7640
0.0417 0.0308 0.7590
0.0439 0.0306 0.7540
0.0461 0.0304 0.7490
0.0482 0.0302 0.7430
0.0503 0.0300 0.7380
0.0524 0.0298 0.7330
0.0544 0.0296 0.7280
0.0564 0.0294 0.7230
0.0585 0.0292 0.7190
0.0606 0.0291 0.7160
0.0627 0.0290 0.7130
0.0648 0.0289 0.7110
0.0670 0.0288 0.7090
0.0692 0.0288 0.7080
0.0715 0.0287 0.7070
0.0738 0.0287 0.7070
0.0760 0.0287 0.7060
0.0783 0.0287 0.7060
0.0805 0.0286 0.7050
0.0829 0.0286 0.7050
0.0851 0.0286 0.7040
0.0874 0.0286 0.7040
0.0896 0.0285 0.7030
0.0917 0.0285 0.7020
0.0939 0.0285 0.7010
0.0961 0.0284 0.7000
0.0981 0.0283 0.6980
0.1003 0.0283 0.6970
0.1024 0.0283 0.6960
0.1046 0.0282 0.6950
0.1067 0.0282 0.6940
0.1087 0.0281 0.6920
0.1108 0.0281 0.6910
0.1129 0.0280 0.6900
0.1150 0.0280 0.6890
0.1171 0.0279 0.6880
0.1190 0.0279 0.6860
0.1211 0.0278 0.6850
0.1232 0.0278 0.6840
0.1252 0.0277 0.6830
0.1273 0.0277 0.6820
0.1293 0.0277 0.6810
0.1314 0.0276 0.6800
0.1336 0.0276 0.6800
0.1361 0.0277 0.6810
0.1383 0.0277 0.6810
0.1410 0.0277 0.6830
0.1436 0.0278 0.6850
0.1463 0.0279 0.6870
0.1490 0.0280 0.6890
0.1517 0.0281 0.6910
0.1544 0.0281 0.6930
0.1569 0.0282 0.6940
0.1595 0.0282 0.6950
0.2744 0.0479 1.1790
0.2771 0.0477 1.1740
0.2797 0.0475 1.1690
0.2824 0.0473 1.1640
0.2847 0.0470 1.1580
0.2868 0.0467 1.1510
0.2886 0.0464 1.1430
0.2898 0.0460 1.1330
0.2906 0.0456 1.1220
0.2909 0.0450 1.1090
0.2906 0.0444 1.0940
0.2904 0.0439 1.0800
0.2880 0.0430 1.0580
0.2865 0.0422 1.0400
0.2841 0.0414 1.0190
0.2838 0.0409 1.0060
0.2839 0.0404 0.9950
0.2846 0.0400 0.9860
0.2861 0.0398 0.9800
0.2879 0.0396 0.9750
0.2899 0.0394 0.9710
0.2919 0.0393 0.9670
0.2941 0.0391 0.9640
0.2964 0.0390 0.9610
0.2986 0.0389 0.9580
0.3008 0.0388 0.9550
0.3030 0.0387 0.9520
0.3052 0.0385 0.9490
0.3073 0.0384 0.9460
0.3095 0.0383 0.9430
0.3116 0.0382 0.9400
0.3137 0.0381 0.9370
0.3157 0.0379 0.9340
0.3178 0.0378 0.9310
0.3195 0.0376 0.9270
0.3215 0.0375 0.9240
0.3231 0.0374 0.9200
0.3247 0.0372 0.9160
0.3263 0.0370 0.9120
0.3282 0.0369 0.9090
0.3297 0.0368 0.9050
0.3313 0.0366 0.9010
0.3331 0.0365 0.8980
0.3349 0.0363 0.8950
0.3368 0.0362 0.8920
0.3385 0.0361 0.8890
0.3403 0.0360 0.8860
0.3425 0.0359 0.8840
0.3442 0.0358 0.8810
0.3459 0.0357 0.8780
0.3476 0.0355 0.8750
0.3493 0.0354 0.8720
0.3509 0.0353 0.8690
0.3526 0.0352 0.8660
0.3542 0.0350 0.8630
0.3562 0.0350 0.8610
0.3578 0.0348 0.8580
0.3598 0.0348 0.8560
0.3613 0.0346 0.8530
0.3629 0.0345 0.8500
0.3644 0.0344 0.8470
0.3659 0.0343 0.8440
0.3678 0.0342 0.8420
0.3696 0.0341 0.8400
0.3715 0.0340 0.8380
0.3734 0.0339 0.8360
0.3752 0.0339 0.8340
0.3775 0.0338 0.8330
0.2902 0.0242 0.5970
0.2917 0.0242 0.5960
0.2927 0.0241 0.5940
0.2941 0.0241 0.5930
0.2951 0.0240 0.5910
0.2965 0.0240 0.5900
0.2980 0.0239 0.5890
-1.8240 0.1472 3.3530
-1.8146 0.1473 3.3560
-1.8062 0.1476 3.3610
-1.7989 0.1479 3.3680
-1.7926 0.1483 3.3770
-1.7878 0.1488 3.3890
-1.7845 0.1494 3.4040
-1.7827 0.1502 3.4220
-1.7818 0.1511 3.4420
-1.7817 0.1521 3.4640
-1.7821 0.1531 3.4870
-1.7823 0.1541 3.5100
-1.7824 0.1551 3.5330
-1.7833 0.1562 3.5580
-1.7855 0.1574 3.5860
-1.7885 0.1587 3.6160
-1.7938 0.1603 3.6510
-1.7960 0.1616 3.6800
-1.8115 0.1641 3.7370
-1.8117 0.1652 3.7630
-0.4096 0.0416 0.9480
-0.4069 0.0417 0.9490
-0.4042 0.0417 0.9500
-0.4015 0.0418 0.9510
-0.3980 0.0417 0.9500
-0.3944 0.0417 0.9490
-0.3909 0.0416 0.9480
-0.3870 0.0415 0.9460
-0.3830 0.0414 0.9440
-0.3787 0.0413 0.9410
-0.3748 0.0412 0.9390
-0.3709 0.0411 0.9370
-0.3671 0.0410 0.9350
-0.3636 0.0410 0.9340
-0.3601 0.0410 0.9330
-0.3567 0.0409 0.9320
-0.3532 0.0409 0.9310
-0.3502 0.0409 0.9310
-0.3471 0.0409 0.9310
-0.3441 0.0409 0.9310
-0.3410 0.0409 0.9310
-0.3379 0.0409 0.9310
-0.3349 0.0409 0.9310
-0.3318 0.0409 0.9310
-0.3291 0.0409 0.9320
-0.3260 0.0409 0.9320
-0.3230 0.0409 0.9320
-0.3202 0.0410 0.9330
-0.3172 0.0410 0.9330
-0.3144 0.0410 0.9340
-0.3117 0.0410 0.9350
-0.3089 0.0411 0.9360
-0.3062 0.0411 0.9370
-0.3037 0.0412 0.9390
-0.3010 0.0413 0.9400
-0.2982 0.0413 0.9410
-0.2954 0.0414 0.9420
-0.2926 0.0414 0.9430
-0.2898 0.0414 0.9440
-0.2867 0.0414 0.9440
-0.2836 0.0414 0.9440
-0.2802 0.0414 0.9430
-0.2771 0.0414 0.9430
-0.2734 0.0413 0.9410
-0.2700 0.0413 0.9400
-0.2664 0.0412 0.9380
-0.2627 0.0411 0.9360
-0.2588 0.0410 0.9330
-0.2549 0.0408 0.9300
-0.2511 0.0407 0.9270
-0.2472 0.0406 0.9240
-0.2434 0.0404 0.9210
-0.2395 0.0403 0.9180
-0.2358 0.0402 0.9150
-0.2320 0.0400 0.9120
-0.2282 0.0399 0.9090
-0.2245 0.0398 0.9060
-0.2210 0.0397 0.9040
-0.2173 0.0396 0.9010
-0.2136 0.0394 0.8980
-0.2102 0.0393 0.8960
-0.2068 0.0392 0.8940
-0.2032 0.0391 0.8910
-0.1998 0.0390 0.8890
-0.1964 0.0389 0.8870
-0.1931 0.0389 0.8850
-0.1897 0.0388 0.8830
-0.1864 0.0387 0.8810
-0.1831 0.0386 0.8790
-0.1798 0.0385 0.8770
-0.1767 0.0385 0.8760
-0.1736 0.0384 0.8750
-0.1705 0.0384 0.8740
-0.1675 0.0383 0.8730
-0.1646 0.0383 0.8730
-0.1617 0.0383 0.8730
-0.1587 0.0383 0.8720
-0.1558 0.0383 0.8720
-0.1528 0.0382 0.8710
-0.1497 0.0382 0.8700
-0.1467 0.0382 0.8690
-0.1437 0.0381 0.8680
-0.1406 0.0381 0.8670
-0.1375 0.0380 0.8650
-0.1345 0.0379 0.8640
-0.1313 0.0378 0.8620
-0.1282 0.0378 0.8600
-0.1251 0.0377 0.8580
-0.1220 0.0376 0.8560
-0.1187 0.0374 0.8530
-0.1156 0.0374 0.8510
-0.1124 0.0372 0.8480
-0.1093 0.0371 0.8450
-0.1062 0.0370 0.8430
-0.1032 0.0369 0.8410
-0.1002 0.0368 0.8390
-0.0972 0.0367 0.8370
-0.0943 0.0367 0.8360
-0.0915 0.0367 0.8350
-0.0886 0.0366 0.8340
-0.0858 0.0366 0.8330
-0.0830 0.0366 0.8330
-0.0802 0.0365 0.8320
-0.0774 0.0365 0.8310
-0.0745 0.0364 0.8300
-0.0717 0.0364 0.8290
-0.0689 0.0364 0.8280
-0.0661 0.0363 0.8270
-0.0634 0.0363 0.8270
-0.0606 0.0363 0.8260
-0.0578 0.0362 0.8250
-0.0550 0.0361 0.8230
-0.0522 0.0361 0.8220
-0.0494 0.0360 0.8210
-0.0467 0.0360 0.8200
-0.0439 0.0360 0.8190
-0.0412 0.0359 0.8180
-0.0384 0.0359 0.8170
-0.0357 0.0358 0.8160
-0.0330 0.0358 0.8150
-0.0302 0.0357 0.8140
-0.0275 0.0357 0.8130
-0.0248 0.0356 0.8120
-0.0222 0.0356 0.8120
-0.0195 0.0356 0.8110
-0.0168 0.0356 0.8110
-0.0141 0.0356 0.8100
-0.0114 0.0356 0.8100
-0.0088 0.0355 0.8090
-0.0061 0.0355 0.8080
-0.0034 0.0354 0.8070
-0.0008 0.0354 0.8060
0.0019 0.0353 0.8040
0.0045 0.0353 0.8030
0.0071 0.0352 0.8010
0.0098 0.0351 0.7990
0.0124 0.0350 0.7970
0.0149 0.0349 0.7950
0.0175 0.0348 0.7920
0.0200 0.0347 0.7900
0.0226 0.0346 0.7880
0.0251 0.0345 0.7850
0.0276 0.0344 0.7830
0.0301 0.0342 0.7800
0.0325 0.0341 0.7760
0.0348 0.0339 0.7720
0.0371 0.0337 0.7670
0.0394 0.0335 0.7620
0.0416 0.0332 0.7570
0.0438 0.0330 0.7520
0.0460 0.0328 0.7470
0.0481 0.0325 0.7410
0.0502 0.0323 0.7360
0.0522 0.0321 0.7310
0.0543 0.0319 0.7260
0.0563 0.0317 0.7210
0.0583 0.0315 0.7170
0.0604 0.0313 0.7140
0.0625 0.0312 0.7110
0.0647 0.0311 0.7090
0.0669 0.0311 0.7080
0.0691 0.0310 0.7070
0.0714 0.0310 0.7060
0.0736 0.0310 0.7050
0.0759 0.0310 0.7050
0.0781 0.0309 0.7040
0.0804 0.0309 0.7040
0.0826 0.0309 0.7030
0.0849 0.0309 0.7030
0.0871 0.0308 0.7020
0.0893 0.0308 0.7010
0.0915 0.0307 0.7000
0.0937 0.0307 0.6990
0.0958 0.0306 0.6980
0.0980 0.0306 0.6970
0.1000 0.0305 0.6950
0.1021 0.0305 0.6940
0.1043 0.0304 0.6930
0.1062 0.0303 0.6910
0.1083 0.0303 0.6900
0.1103 0.0302 0.6880
0.1124 0.0302 0.6870
0.1145 0.0301 0.6860
0.1164 0.0300 0.6840
0.1185 0.0300 0.6830
0.1204 0.0299 0.6810
0.1224 0.0299 0.6800
0.1243 0.0298 0.6780
0.1264 0.0297 0.6770
0.1284 0.0297 0.6760
0.1306 0.0297 0.6760
0.1326 0.0296 0.6750
0.1349 0.0296 0.6750
0.1373 0.0297 0.6760
0.1397 0.0297 0.6770
0.1424 0.0298 0.6790
0.1450 0.0299 0.6810
0.1477 0.0300 0.6830
0.1504 0.0301 0.6850
0.1531 0.0302 0.6870
0.1558 0.0302 0.6890
0.1581 0.0302 0.6890
0.2741 0.0517 1.1780
0.2764 0.0514 1.1710
0.2793 0.0512 1.1670
0.2816 0.0510 1.1610
0.2840 0.0507 1.1550
0.2860 0.0504 1.1480
0.2878 0.0500 1.1400
0.2893 0.0497 1.1310
0.2901 0.0492 1.1200
0.2904 0.0486 1.1070
0.2901 0.0479 1.0920
0.2896 0.0473 1.0770
0.2877 0.0464 1.0570
0.2865 0.0457 1.0400
0.2849 0.0449 1.0220
0.2843 0.0443 1.0080
0.2845 0.0438 0.9970
0.2849 0.0433 0.9870
0.2864 0.0431 0.9810
0.2882 0.0428 0.9760
0.2899 0.0426 0.9710
0.2922 0.0425 0.9680
0.2944 0.0424 0.9650
0.2967 0.0422 0.9620
0.2989 0.0421 0.9590
0.3011 0.0420 0.9560
0.3033 0.0418 0.9530
0.3055 0.0417 0.9500
0.3076 0.0416 0.9470
0.3098 0.0414 0.9440
0.3119 0.0413 0.9410
0.3140 0.0412 0.9380
0.3161 0.0410 0.9350
0.3178 0.0409 0.9310
0.3198 0.0407 0.9280
0.3218 0.0406 0.9250
0.3235 0.0404 0.9210
0.3251 0.0403 0.9170
0.3267 0.0401 0.9130
0.3282 0.0399 0.9090
0.3301 0.0398 0.9060
0.3316 0.0396 0.9020
0.3331 0.0394 0.8980
0.3349 0.0393 0.8950
0.3368 0.0392 0.8920
0.3385 0.0390 0.8890
0.3403 0.0389 0.8860
0.3421 0.0388 0.8830
0.3442 0.0387 0.8810
0.3459 0.0385 0.8780
0.3476 0.0384 0.8750
0.3493 0.0383 0.8720
0.3505 0.0381 0.8680
0.3522 0.0380 0.8650
0.3542 0.0379 0.8630
0.3558 0.0378 0.8600
0.3574 0.0376 0.8570
0.3594 0.0375 0.8550
0.3609 0.0374 0.8520
0.3624 0.0373 0.8490
0.3639 0.0371 0.8460
0.3659 0.0371 0.8440
0.3673 0.0369 0.8410
0.3692 0.0368 0.8390
0.3711 0.0367 0.8370
0.3729 0.0367 0.8350
0.3743 0.0365 0.8320
0.3766 0.0365 0.8310
0.3780 0.0364 0.8280
0.3803 0.0363 0.8270
0.2946 0.0259 0.5900
0.2960 0.0259 0.5890
0.2975 0.0258 0.5880
-1.8191 0.1578 3.3440
-1.8097 0.1580 3.3470
-1.8014 0.1582 3.3520
-1.7935 0.1585 3.3580
-1.7873 0.1589 3.3670
-1.7825 0.1595 3.3790
-1.7787 0.1601 3.3930
-1.7769 0.1610 3.4110
-1.7761 0.1619 3.4310
-1.7761 0.1630 3.4530
-1.7765 0.1640 3.4760
-1.7762 0.1651 3.4980
-1.7763 0.1662 3.5210
-1.7762 0.1673 3.5440
-1.7780 0.1685 3.5710
-1.7806 0.1699 3.6000
-1.7865 0.1716 3.6360
-1.7857 0.1727 3.6590
-0.4110 0.0446 0.9440
-0.4088 0.0446 0.9460
-0.4061 0.0447 0.9470
-0.4034 0.0447 0.9480
-0.4003 0.0447 0.9480
-0.3971 0.0447 0.9480
-0.3936 0.0447 0.9470
-0.3901 0.0446 0.9460
-0.3861 0.0446 0.9440
-0.3822 0.0445 0.9420
-0.3779 0.0443 0.9390
-0.3740 0.0442 0.9370
-0.3701 0.0441 0.9350
-0.3663 0.0440 0.9330
-0.3628 0.0440 0.9320
-0.3594 0.0439 0.9310
-0.3559 0.0439 0.9300
-0.3525 0.0438 0.9290
-0.3494 0.0438 0.9290
-0.3464 0.0438 0.9290
-0.3433 0.0438 0.9290
-0.3403 0.0438 0.9290
-0.3372 0.0438 0.9290
-0.3341 0.0438 0.9290
-0.3314 0.0439 0.9300
-0.3284 0.0439 0.9300
-0.3253 0.0439 0.9300
-0.3226 0.0439 0.9310
-0.3195 0.0439 0.9310
-0.3168 0.0440 0.9320
-0.3138 0.0440 0.9320
-0.3110 0.0440 0.9330
-0.3086 0.0441 0.9350
-0.3059 0.0442 0.9360
-0.3031 0.0442 0.9370
-0.3007 0.0443 0.9390
-0.2979 0.0444 0.9400
-0.2954 0.0445 0.9420
-0.2926 0.0445 0.9430
-0.2895 0.0445 0.9430
-0.2867 0.0446 0.9440
-0.2836 0.0446 0.9440
-0.2802 0.0445 0.9430
-0.2768 0.0445 0.9420
-0.2734 0.0444 0.9410
-0.2700 0.0444 0.9400
-0.2664 0.0443 0.9380
-0.2627 0.0442 0.9360
-0.2588 0.0440 0.9330
-0.2549 0.0439 0.9300
-0.2511 0.0437 0.9270
-0.2472 0.0436 0.9240
-0.2434 0.0435 0.9210
-0.2395 0.0433 0.9180
-0.2358 0.0432 0.9150
-0.2320 0.0430 0.9120
-0.2280 0.0429 0.9080
-0.2242 0.0427 0.9050
-0.2205 0.0426 0.9020
-0.2171 0.0425 0.9000
-0.2134 0.0423 0.8970
-0.2100 0.0422 0.8950
-0.2066 0.0421 0.8930
-0.2030 0.0420 0.8900
-0.1996 0.0419 0.8880
-0.1962 0.0418 0.8860
-0.1929 0.0417 0.8840
-0.1895 0.0416 0.8820
-0.1862 0.0415 0.8800
-0.1829 0.0414 0.8780
-0.1796 0.0413 0.8760
-0.1765 0.0413 0.8750
-0.1734 0.0412 0.8740
-0.1703 0.0412 0.8730
-0.1675 0.0412 0.8730
-0.1644 0.0412 0.8720
-0.1615 0.0412 0.8720
-0.1587 0.0412 0.8720
-0.1556 0.0411 0.8710
-0.1526 0.0411 0.8700
-0.1497 0.0411 0.8700
-0.1467 0.0410 0.8690
-0.1437 0.0410 0.8680
-0.1405 0.0409 0.8660
-0.1375 0.0408 0.8650
-0.1345 0.0408 0.8640
-0.1313 0.0407 0.8620
-0.1282 0.0406 0.8600
-0.1251 0.0405 0.8580
-0.1220 0.0404 0.8560
-0.1189 0.0403 0.8540
-0.1156 0.0402 0.8510
-0.1124 0.0400 0.8480
-0.1093 0.0399 0.8450
-0.1062 0.0398 0.8430
-0.1032 0.0397 0.8410
-0.1002 0.0396 0.8390
-0.0972 0.0395 0.8370
-0.0943 0.0395 0.8360
-0.0915 0.0394 0.8350
-0.0886 0.0394 0.8340
-0.0858 0.0393 0.8330
-0.0829 0.0393 0.8320
-0.0802 0.0393 0.8320
-0.0774 0.0392 0.8310
-0.0745 0.0392 0.8300
-0.0717 0.0391 0.8290
-0.0689 0.0391 0.8280
-0.0661 0.0390 0.8270
-0.0633 0.0390 0.8260
-0.0605 0.0389 0.8250
-0.0577 0.0389 0.8240
-0.0550 0.0388 0.8230
-0.0522 0.0388 0.8220
-0.0494 0.0387 0.8210
-0.0467 0.0387 0.8200
-0.0439 0.0387 0.8190
-0.0412 0.0386 0.8180
-0.0384 0.0386 0.8170
-0.0357 0.0385 0.8160
-0.0330 0.0385 0.8150
-0.0303 0.0385 0.8150
-0.0276 0.0384 0.8140
-0.0249 0.0384 0.8130
-0.0222 0.0384 0.8130
-0.0195 0.0383 0.8120
-0.0168 0.0383 0.8120
-0.0141 0.0383 0.8110
-0.0114 0.0382 0.8100
-0.0088 0.0382 0.8090
-0.0061 0.0381 0.8080
-0.0034 0.0381 0.8070
-0.0008 0.0380 0.8060
0.0019 0.0379 0.8040
0.0045 0.0378 0.8020
0.0071 0.0378 0.8000
0.0097 0.0377 0.7980
0.0123 0.0376 0.7960
0.0149 0.0375 0.7940
0.0175 0.0374 0.7920
0.0200 0.0373 0.7900
0.0226 0.0371 0.7870
0.0251 0.0370 0.7850
0.0276 0.0369 0.7820
0.0300 0.0368 0.7790
0.0324 0.0366 0.7750
0.0347 0.0363 0.7700
0.0370 0.0361 0.7650
0.0393 0.0359 0.7600
0.0415 0.0356 0.7550
0.0437 0.0354 0.7500
0.0458 0.0351 0.7440
0.0479 0.0349 0.7390
0.0500 0.0346 0.7340
0.0521 0.0344 0.7290
0.0541 0.0342 0.7240
0.0562 0.0340 0.7200
0.0582 0.0338 0.7160
0.0602 0.0336 0.7120
0.0624 0.0335 0.7100
0.0646 0.0334 0.7080
0.0667 0.0333 0.7060
0.0689 0.0333 0.7050
0.0712 0.0332 0.7040
0.0735 0.0332 0.7040
0.0757 0.0332 0.7030
0.0780 0.0332 0.7030
0.0802 0.0331 0.7020
0.0825 0.0331 0.7020
0.0847 0.0331 0.7010
0.0870 0.0331 0.7010
0.0892 0.0330 0.7000
0.0914 0.0330 0.6990
0.0935 0.0329 0.6980
0.0957 0.0329 0.6970
0.0977 0.0328 0.6950
0.0998 0.0328 0.6940
0.1018 0.0327 0.6920
0.1040 0.0326 0.6910
0.1059 0.0325 0.6890
0.1079 0.0324 0.6870
0.1098 0.0323 0.6850
0.1119 0.0323 0.6840
0.1138 0.0322 0.6820
0.1157 0.0321 0.6800
0.1176 0.0320 0.6780
0.1197 0.0319 0.6770
0.1215 0.0319 0.6750
0.1236 0.0318 0.6740
0.1254 0.0317 0.6720
0.1274 0.0317 0.6710
0.1297 0.0317 0.6710
0.1317 0.0316 0.6700
0.1339 0.0316 0.6700
0.1363 0.0317 0.6710
0.1387 0.0317 0.6720
0.1411 0.0318 0.6730
0.1438 0.0319 0.6750
0.1464 0.0319 0.6770
0.1491 0.0320 0.6790
0.1515 0.0321 0.6800
0.1542 0.0322 0.6820
0.1567 0.0322 0.6830
0.1578 0.0320 0.6780
0.2754 0.0551 1.1670
0.2785 0.0549 1.1640
0.2809 0.0546 1.1580
0.2830 0.0543 1.1510
0.2851 0.0540 1.1440
0.2868 0.0536 1.1360
0.2882 0.0532 1.1270
0.2891 0.0527 1.1160
0.2894 0.0521 1.1030
0.2893 0.0514 1.0890
0.2885 0.0506 1.0730
0.2875 0.0498 1.0560
0.2862 0.0490 1.0390
0.2852 0.0483 1.0230
0.2849 0.0477 1.0100
0.2848 0.0471 0.9980
0.2855 0.0467 0.9890
0.2867 0.0463 0.9820
0.2882 0.0461 0.9760
0.2902 0.0459 0.9720
0.2925 0.0457 0.9690
0.2947 0.0456 0.9660
0.2970 0.0454 0.9630
0.2992 0.0453 0.9600
0.3014 0.0452 0.9570
0.3036 0.0450 0.9540
0.3058 0.0449 0.9510
0.3080 0.0447 0.9480
0.3101 0.0446 0.9450
0.3122 0.0445 0.9420
0.3143 0.0443 0.9390
0.3164 0.0442 0.9360
0.3185 0.0440 0.9330
0.3201 0.0438 0.9290
0.3222 0.0437 0.9260
0.3238 0.0435 0.9220
0.3254 0.0433 0.9180
0.3270 0.0431 0.9140
0.3286 0.0429 0.9100
0.3301 0.0428 0.9060
0.3316 0.0426 0.9020
0.3335 0.0424 0.8990
0.3349 0.0422 0.8950
0.3368 0.0421 0.8920
0.3385 0.0420 0.8890
0.3403 0.0418 0.8860
0.3421 0.0417 0.8830
0.3438 0.0415 0.8800
0.3455 0.0414 0.8770
0.3472 0.0412 0.8740
0.3489 0.0411 0.8710
0.3505 0.0410 0.8680
0.3522 0.0408 0.8650
0.3538 0.0407 0.8620
0.3554 0.0405 0.8590
0.3570 0.0404 0.8560
0.3589 0.0403 0.8540
0.3605 0.0402 0.8510
0.3620 0.0400 0.8480
0.3639 0.0399 0.8460
0.3654 0.0398 0.8430
0.3669 0.0396 0.8400
0.3688 0.0395 0.8380
0.3702 0.0394 0.8350
0.3720 0.0393 0.8330
0.3739 0.0392 0.8310
0.3757 0.0391 0.8290
0.3771 0.0390 0.8260
0.3793 0.0389 0.8250
0.2960 0.0278 0.5890
0.2975 0.0277 0.5880
-1.8147 0.1684 3.3360
-1.8054 0.1686 3.3390
-1.7965 0.1688 3.3430
-1.7887 0.1691 3.3490
-1.7820 0.1695 3.3570
-1.7772 0.1701 3.3690
-1.7740 0.1708 3.3840
-1.7717 0.1717 3.4010
-1.7709 0.1727 3.4210
-1.7709 0.1738 3.4430
-1.7709 0.1749 3.4650
-1.7706 0.1760 3.4870
-1.7692 0.1771 3.5070
-1.7682 0.1781 3.5280
-1.7701 0.1795 3.5550
-1.7732 0.1810 3.5850
-1.7825 0.1832 3.6280
-1.7803 0.1842 3.6480
-0.4181 0.0474 0.9390
-0.4150 0.0474 0.9390
-0.4123 0.0475 0.9400
-0.4101 0.0476 0.9420
-0.4075 0.0476 0.9430
-0.4048 0.0477 0.9440
-0.4017 0.0477 0.9440
-0.3990 0.0477 0.9450
-0.3959 0.0477 0.9450
-0.3924 0.0477 0.9440
-0.3888 0.0476 0.9430
-0.3849 0.0475 0.9410
-0.3810 0.0474 0.9390
-0.3771 0.0473 0.9370
-0.3732 0.0472 0.9350
-0.3694 0.0471 0.9330
-0.3655 0.0470 0.9310
-0.3620 0.0470 0.9300
-0.3586 0.0469 0.9290
-0.3552 0.0468 0.9280
-0.3521 0.0468 0.9280
-0.3487 0.0468 0.9270
-0.3456 0.0468 0.9270
-0.3429 0.0468 0.9280
-0.3399 0.0468 0.9280
-0.3368 0.0468 0.9280
-0.3338 0.0468 0.9280
-0.3307 0.0468 0.9280
-0.3277 0.0468 0.9280
-0.3250 0.0469 0.9290
-0.3219 0.0469 0.9290
-0.3192 0.0470 0.9300
-0.3161 0.0470 0.9300
-0.3134 0.0470 0.9310
-0.3107 0.0471 0.9320
-0.3079 0.0471 0.9330
-0.3055 0.0472 0.9350
-0.3028 0.0473 0.9360
-0.3003 0.0474 0.9380
-0.2976 0.0474 0.9390
-0.2951 0.0475 0.9410
-0.2923 0.0476 0.9420
-0.2895 0.0476 0.9430
-0.2864 0.0476 0.9430
-0.2833 0.0476 0.9430
-0.2802 0.0476 0.9430
-0.2768 0.0476 0.9420
-0.2734 0.0475 0.9410
-0.2700 0.0475 0.9400
-0.2664 0.0474 0.9380
-0.2627 0.0473 0.9360
-0.2588 0.0471 0.9330
-0.2552 0.0470 0.9310
-0.2511 0.0468 0.9270
-0.2472 0.0466 0.9240
-0.2434 0.0465 0.9210
-0.2393 0.0463 0.9170
-0.2355 0.0461 0.9140
-0.2317 0.0460 0.9110
-0.2277 0.0458 0.9070
-0.2240 0.0456 0.9040
-0.2203 0.0455 0.9010
-0.2168 0.0454 0.8990
-0.2132 0.0452 0.8960
-0.2097 0.0451 0.8940
-0.2063 0.0450 0.8920
-0.2030 0.0449 0.8900
-0.1993 0.0448 0.8870
-0.1960 0.0447 0.8850
-0.1926 0.0446 0.8830
-0.1893 0.0445 0.8810
-0.1860 0.0444 0.8790
-0.1827 0.0443 0.8770
-0.1794 0.0442 0.8750
-0.1763 0.0441 0.8740
-0.1732 0.0441 0.8730
-0.1703 0.0441 0.8730
-0.1673 0.0440 0.8720
-0.1644 0.0440 0.8720
-0.1615 0.0440 0.8720
-0.1585 0.0440 0.8710
-0.1556 0.0440 0.8710
-0.1526 0.0439 0.8700
-0.1495 0.0439 0.8690
-0.1467 0.0439 0.8690
-0.1435 0.0438 0.8670
-0.1405 0.0437 0.8660
-0.1375 0.0437 0.8650
-0.1345 0.0436 0.8640
-0.1313 0.0435 0.8620
-0.1282 0.0434 0.8600
-0.1251 0.0433 0.8580
-0.1220 0.0432 0.8560
-0.1189 0.0431 0.8540
-0.1156 0.0430 0.8510
-0.1124 0.0428 0.8480
-0.1094 0.0427 0.8460
-0.1062 0.0426 0.8430
-0.1032 0.0425 0.8410
-0.1002 0.0424 0.8390
-0.0972 0.0423 0.8370
-0.0943 0.0422 0.8360
-0.0915 0.0422 0.8350
-0.0886 0.0421 0.8340
-0.0858 0.0421 0.8330
-0.0829 0.0420 0.8320
-0.0801 0.0420 0.8310
-0.0774 0.0420 0.8310
-0.0745 0.0419 0.8300
-0.0717 0.0419 0.8290
-0.0689 0.0418 0.8280
-0.0661 0.0418 0.8270
-0.0633 0.0417 0.8260
-0.0605 0.0416 0.8250
-0.0577 0.0416 0.8240
-0.0550 0.0415 0.8230
-0.0522 0.0415 0.8220
-0.0494 0.0414 0.8210
-0.0467 0.0414 0.8200
-0.0439 0.0413 0.8190
-0.0412 0.0413 0.8180
-0.0384 0.0412 0.8170
-0.0357 0.0412 0.8170
-0.0330 0.0412 0.8160
-0.0303 0.0411 0.8150
-0.0276 0.0411 0.8150
-0.0249 0.0411 0.8140
-0.0222 0.0411 0.8140
-0.0195 0.0410 0.8130
-0.0168 0.0410 0.8120
-0.0141 0.0410 0.8120
-0.0114 0.0409 0.8110
-0.0088 0.0409 0.8100
-0.0061 0.0408 0.8090
-0.0034 0.0407 0.8070
-0.0008 0.0407 0.8060
0.0019 0.0406 0.8040
0.0045 0.0405 0.8020
0.0071 0.0404 0.8000
0.0097 0.0403 0.7980
0.0123 0.0402 0.7960
0.0149 0.0401 0.7940
0.0175 0.0399 0.7910
0.0200 0.0398 0.7890
0.0226 0.0397 0.7870
0.0251 0.0396 0.7840
0.0275 0.0394 0.7810
0.0300 0.0393 0.7780
0.0324 0.0391 0.7740
0.0347 0.0388 0.7690
0.0370 0.0386 0.7640
0.0392 0.0383 0.7580
0.0414 0.0380 0.7530
0.0436 0.0378 0.7480
0.0457 0.0375 0.7420
0.0478 0.0372 0.7370
0.0499 0.0370 0.7320
0.0519 0.0367 0.7270
0.0540 0.0365 0.7230
0.0560 0.0362 0.7180
0.0581 0.0361 0.7150
0.0602 0.0359 0.7110
0.0623 0.0358 0.7090
0.0645 0.0357 0.7070
0.0666 0.0356 0.7050
0.0688 0.0355 0.7040
0.0711 0.0355 0.7030
0.0734 0.0355 0.7030
0.0756 0.0354 0.7020
0.0779 0.0354 0.7020
0.0801 0.0354 0.7010
0.0824 0.0354 0.7010
0.0846 0.0353 0.7000
0.0869 0.0353 0.7000
0.0891 0.0353 0.6990
0.0912 0.0352 0.6980
0.0934 0.0352 0.6970
0.0955 0.0351 0.6960
0.0976 0.0350 0.6940
0.0995 0.0349 0.6920
0.1015 0.0348 0.6900
0.1035 0.0347 0.6880
0.1055 0.0346 0.6860
0.1074 0.0345 0.6840
0.1093 0.0344 0.6820
0.1113 0.0343 0.6800
0.1132 0.0342 0.6780
0.1150 0.0341 0.6760
0.1169 0.0340 0.6740
0.1188 0.0339 0.6720
0.1206 0.0338 0.6700
0.1225 0.0337 0.6680
0.1245 0.0337 0.6670
0.1265 0.0336 0.6660
0.1285 0.0336 0.6650
0.1307 0.0336 0.6650
0.1329 0.0336 0.6650
0.1351 0.0336 0.6650
0.1375 0.0336 0.6660
0.1399 0.0337 0.6670
0.1423 0.0337 0.6680
0.1449 0.0338 0.6700
0.1475 0.0339 0.6720
0.1502 0.0340 0.6740
0.1526 0.0341 0.6750
0.1551 0.0341 0.6760
0.1569 0.0340 0.6740
0.2747 0.0588 1.1640
0.2778 0.0586 1.1610
0.2799 0.0583 1.1540
0.2818 0.0579 1.1460
0.2838 0.0575 1.1390
0.2855 0.0571 1.1310
0.2870 0.0566 1.1220
0.2878 0.0561 1.1110
0.2883 0.0555 1.0990
0.2882 0.0548 1.0850
0.2877 0.0540 1.0700
0.2869 0.0532 1.0540
0.2860 0.0524 1.0380
0.2852 0.0516 1.0230
0.2849 0.0510 1.0100
0.2851 0.0504 0.9990
0.2855 0.0499 0.9890
0.2870 0.0496 0.9830
0.2885 0.0493 0.9770
0.2905 0.0491 0.9730
0.2928 0.0490 0.9700
0.2951 0.0488 0.9670
0.2973 0.0487 0.9640
0.2995 0.0485 0.9610
0.3018 0.0484 0.9580
0.3040 0.0482 0.9550
0.3061 0.0481 0.9520
0.3083 0.0479 0.9490
0.3104 0.0478 0.9460
0.3126 0.0476 0.9430
0.3147 0.0475 0.9400
0.3167 0.0473 0.9370
0.3188 0.0472 0.9340
0.3208 0.0470 0.9310
0.3225 0.0468 0.9270
0.3242 0.0466 0.9230
0.3258 0.0464 0.9190
0.3274 0.0462 0.9150
0.3289 0.0460 0.9110
0.3305 0.0458 0.9070
0.3320 0.0456 0.9030
0.3335 0.0454 0.8990
0.3353 0.0452 0.8960
0.3368 0.0450 0.8920
0.3385 0.0449 0.8890
0.3403 0.0447 0.8860
0.3421 0.0446 0.8830
0.3438 0.0444 0.8800
0.3455 0.0443 0.8770
0.3472 0.0441 0.8740
0.3485 0.0439 0.8700
0.3501 0.0438 0.8670
0.3518 0.0436 0.8640
0.3534 0.0435 0.8610
0.3550 0.0433 0.8580
0.3570 0.0432 0.8560
0.3585 0.0431 0.8530
0.3601 0.0429 0.8500
0.3620 0.0428 0.8480
0.3635 0.0427 0.8450
0.3650 0.0425 0.8420
0.3664 0.0424 0.8390
0.3683 0.0423 0.8370
0.3698 0.0421 0.8340
0.3712 0.0420 0.8310
0.3730 0.0419 0.8290
0.3748 0.0418 0.8270
0.3762 0.0416 0.8240
0.3784 0.0415 0.8230
0.2969 0.0296 0.5870
-1.8098 0.1789 3.3270
-1.8005 0.1791 3.3300
-1.7917 0.1793 3.3340
-1.7839 0.1796 3.3400
-1.7772 0.1800 3.3480
-1.7725 0.1807 3.3600
-1.7693 0.1815 3.3750
-1.7670 0.1824 3.3920
-1.7662 0.1835 3.4120
-1.7658 0.1846 3.4330
-1.7657 0.1858 3.4550
-1.7645 0.1869 3.4750
-1.7627 0.1879 3.4940
-1.7597 0.1888 3.5110
-1.7616 0.1903 3.5380
-1.7663 0.1920 3.5710
-0.4172 0.0504 0.9370
-0.4141 0.0504 0.9370
-0.4110 0.0504 0.9370
-0.4088 0.0505 0.9390
-0.4062 0.0505 0.9400
-0.4031 0.0505 0.9400
-0.4004 0.0506 0.9410
-0.3973 0.0506 0.9410
-0.3942 0.0506 0.9410
-0.3911 0.0506 0.9410
-0.3876 0.0505 0.9400
-0.3837 0.0504 0.9380
-0.3802 0.0504 0.9370
-0.3763 0.0503 0.9350
-0.3724 0.0502 0.9330
-0.3686 0.0501 0.9310
-0.3647 0.0500 0.9290
-0.3613 0.0499 0.9280
-0.3578 0.0499 0.9270
-0.3544 0.0498 0.9260
-0.3513 0.0498 0.9260
-0.3483 0.0498 0.9260
-0.3453 0.0498 0.9260
-0.3422 0.0498 0.9260
-0.3392 0.0498 0.9260
-0.3365 0.0499 0.9270
-0.3334 0.0499 0.9270
-0.3304 0.0499 0.9270
-0.3273 0.0499 0.9270
-0.3243 0.0499 0.9270
-0.3216 0.0499 0.9280
-0.3185 0.0499 0.9280
-0.3158 0.0500 0.9290
-0.3127 0.0500 0.9290
-0.3100 0.0500 0.9300
-0.3076 0.0501 0.9320
-0.3049 0.0502 0.9330
-0.3025 0.0503 0.9350
-0.3000 0.0504 0.9370
-0.2976 0.0505 0.9390
-0.2948 0.0505 0.9400
-0.2923 0.0507 0.9420
-0.2895 0.0507 0.9430
-0.2864 0.0507 0.9430
-0.2833 0.0507 0.9430
-0.2802 0.0507 0.9430
-0.2771 0.0507 0.9430
-0.2737 0.0507 0.9420
-0.2700 0.0505 0.9400
-0.2664 0.0504 0.9380
-0.2627 0.0503 0.9360
-0.2591 0.0502 0.9340
-0.2552 0.0501 0.9310
-0.2513 0.0499 0.9280
-0.2472 0.0497 0.9240
-0.2431 0.0495 0.9200
-0.2393 0.0493 0.9170
-0.2352 0.0491 0.9130
-0.2315 0.0489 0.9100
-0.2277 0.0488 0.9070
-0.2237 0.0486 0.9030
-0.2200 0.0484 0.9000
-0.2166 0.0483 0.8980
-0.2129 0.0481 0.8950
-0.2095 0.0480 0.8930
-0.2061 0.0479 0.8910
-0.2027 0.0478 0.8890
-0.1993 0.0477 0.8870
-0.1958 0.0475 0.8840
-0.1924 0.0474 0.8820
-0.1891 0.0473 0.8800
-0.1858 0.0472 0.8780
-0.1825 0.0471 0.8760
-0.1794 0.0471 0.8750
-0.1761 0.0469 0.8730
-0.1730 0.0469 0.8720
-0.1701 0.0469 0.8720
-0.1671 0.0468 0.8710
-0.1642 0.0468 0.8710
-0.1614 0.0468 0.8710
-0.1585 0.0468 0.8710
-0.1554 0.0468 0.8700
-0.1526 0.0468 0.8700
-0.1495 0.0467 0.8690
-0.1465 0.0467 0.8680
-0.1435 0.0466 0.8670
-0.1405 0.0466 0.8660
-0.1375 0.0465 0.8650
-0.1345 0.0465 0.8640
-0.1313 0.0464 0.8620
-0.1283 0.0463 0.8610
-0.1252 0.0462 0.8590
-0.1220 0.0460 0.8560
-0.1189 0.0459 0.8540
-0.1156 0.0458 0.8510
-0.1124 0.0456 0.8480
-0.1094 0.0455 0.8460
-0.1062 0.0453 0.8430
-0.1032 0.0452 0.8410
-0.1002 0.0451 0.8390
-0.0972 0.0450 0.8370
-0.0943 0.0450 0.8360
-0.0915 0.0449 0.8350
-0.0886 0.0448 0.8340
-0.0858 0.0448 0.8330
-0.0829 0.0447 0.8320
-0.0801 0.0447 0.8310
-0.0774 0.0447 0.8310
-0.0745 0.0446 0.8300
-0.0717 0.0446 0.8290
-0.0689 0.0445 0.8280
-0.0661 0.0445 0.8270
-0.0633 0.0444 0.8260
-0.0605 0.0444 0.8250
-0.0577 0.0443 0.8240
-0.0550 0.0443 0.8230
-0.0522 0.0442 0.8220
-0.0494 0.0442 0.8210
-0.0467 0.0441 0.8200
-0.0439 0.0440 0.8190
-0.0412 0.0440 0.8180
-0.0385 0.0440 0.8180
-0.0357 0.0439 0.8170
-0.0330 0.0439 0.8160
-0.0303 0.0439 0.8160
-0.0276 0.0438 0.8150
-0.0249 0.0438 0.8150
-0.0222 0.0438 0.8140
-0.0195 0.0438 0.8140
-0.0168 0.0437 0.8130
-0.0141 0.0437 0.8120
-0.0114 0.0436 0.8110
-0.0088 0.0436 0.8100
-0.0061 0.0435 0.8090
-0.0034 0.0435 0.8080
-0.0008 0.0433 0.8060
0.0019 0.0432 0.8040
0.0045 0.0431 0.8020
0.0071 0.0430 0.8000
0.0097 0.0429 0.7980
0.0123 0.0428 0.7960
0.0149 0.0427 0.7940
0.0175 0.0425 0.7910
0.0200 0.0424 0.7890
0.0226 0.0423 0.7870
0.0251 0.0422 0.7840
0.0275 0.0420 0.7810
0.0299 0.0418 0.7770
0.0323 0.0416 0.7730
0.0347 0.0413 0.7680
0.0369 0.0410 0.7620
0.0391 0.0407 0.7570
0.0413 0.0404 0.7510
0.0435 0.0401 0.7460
0.0456 0.0398 0.7400
0.0477 0.0395 0.7350
0.0498 0.0393 0.7300
0.0519 0.0390 0.7260
0.0540 0.0388 0.7220
0.0560 0.0386 0.7170
0.0581 0.0384 0.7140
0.0602 0.0382 0.7110
0.0622 0.0381 0.7080
0.0644 0.0380 0.7060
0.0665 0.0379 0.7040
0.0687 0.0378 0.7030
0.0711 0.0378 0.7030
0.0733 0.0378 0.7020
0.0755 0.0377 0.7010
0.0778 0.0377 0.7010
0.0801 0.0377 0.7010
0.0823 0.0376 0.7000
0.0846 0.0376 0.7000
0.0868 0.0376 0.6990
0.0889 0.0375 0.6980
0.0911 0.0375 0.6970
0.0933 0.0374 0.6960
0.0954 0.0374 0.6950
0.0974 0.0373 0.6930
0.0994 0.0372 0.6910
0.1012 0.0370 0.6880
0.1032 0.0369 0.6860
0.1050 0.0367 0.6830
0.1068 0.0366 0.6800
0.1087 0.0365 0.6780
0.1106 0.0364 0.6760
0.1123 0.0362 0.6730
0.1142 0.0361 0.6710
0.1159 0.0359 0.6680
0.1177 0.0358 0.6660
0.1196 0.0357 0.6640
0.1216 0.0357 0.6630
0.1234 0.0355 0.6610
0.1254 0.0355 0.6600
0.1273 0.0354 0.6590
0.1295 0.0354 0.6590
0.1317 0.0354 0.6590
0.1338 0.0354 0.6590
0.1362 0.0355 0.6600
0.1386 0.0355 0.6610
0.1410 0.0356 0.6620
0.1436 0.0357 0.6640
0.1460 0.0358 0.6650
0.1486 0.0359 0.6670
0.1513 0.0360 0.6690
0.1537 0.0360 0.6700
0.1557 0.0360 0.6690
0.2745 0.0625 1.1630
0.2773 0.0623 1.1590
0.2790 0.0618 1.1500
0.2805 0.0614 1.1410
0.2826 0.0610 1.1340
0.2843 0.0606 1.1260
0.2854 0.0600 1.1160
0.2862 0.0594 1.1050
0.2870 0.0588 1.0940
0.2869 0.0581 1.0800
0.2867 0.0573 1.0660
0.2861 0.0565 1.0510
0.2857 0.0558 1.0370
0.2852 0.0550 1.0230
0.2852 0.0544 1.0110
0.2854 0.0538 1.0000
0.2858 0.0532 0.9900
0.2873 0.0529 0.9840
0.2888 0.0526 0.9780
0.2908 0.0524 0.9740
0.2931 0.0522 0.9710
0.2954 0.0521 0.9680
0.2976 0.0519 0.9650
0.2999 0.0517 0.9620
0.3021 0.0516 0.9590
0.3043 0.0514 0.9560
0.3065 0.0512 0.9530
0.3089 0.0511 0.9510
0.3111 0.0510 0.9480
0.3132 0.0508 0.9450
0.3153 0.0507 0.9420
0.3174 0.0505 0.9390
0.3191 0.0503 0.9350
0.3212 0.0501 0.9320
0.3232 0.0500 0.9290
0.3249 0.0497 0.9250
0.3265 0.0495 0.9210
0.3281 0.0493 0.9170
0.3297 0.0491 0.9130
0.3308 0.0488 0.9080
0.3324 0.0486 0.9040
0.3338 0.0484 0.9000
0.3353 0.0482 0.8960
0.3371 0.0480 0.8930
0.3385 0.0478 0.8890
0.3403 0.0476 0.8860
0.3421 0.0475 0.8830
0.3438 0.0473 0.8800
0.3451 0.0471 0.8760
0.3468 0.0469 0.8730
0.3485 0.0468 0.8700
0.3501 0.0466 0.8670
0.3514 0.0464 0.8630
0.3530 0.0462 0.8600
0.3550 0.0461 0.8580
0.3565 0.0460 0.8550
0.3581 0.0458 0.8520
0.3601 0.0457 0.8500
0.3616 0.0455 0.8470
0.3631 0.0454 0.8440
0.3646 0.0452 0.8410
0.3660 0.0451 0.8380
0.3674 0.0449 0.8350
0.3689 0.0447 0.8320
0.3703 0.0446 0.8290
0.3721 0.0445 0.8270
0.3735 0.0443 0.8240
0.3753 0.0442 0.8220
0.3770 0.0441 0.8200
0.3779 0.0439 0.8160
-1.8049 0.1894 3.3180
-1.7951 0.1895 3.3200
-1.7863 0.1897 3.3240
-1.7786 0.1900 3.3300
-1.7724 0.1906 3.3390
-1.7677 0.1912 3.3510
-1.7646 0.1921 3.3660
-1.7624 0.1931 3.3830
-1.7616 0.1942 3.4030
-1.7612 0.1954 3.4240
-1.7606 0.1966 3.4450
-1.7589 0.1977 3.4640
-1.7561 0.1987 3.4810
-1.7517 0.1995 3.4950
-1.7556 0.2012 3.5260
-0.4176 0.0531 0.9310
-0.4154 0.0532 0.9330
-0.4128 0.0533 0.9340
-0.4097 0.0533 0.9340
-0.4071 0.0534 0.9350
-0.4044 0.0534 0.9360
-0.4013 0.0534 0.9360
-0.3987 0.0535 0.9370
-0.3956 0.0535 0.9370
-0.3925 0.0535 0.9370
-0.3894 0.0535 0.9370
-0.3859 0.0534 0.9360
-0.3825 0.0534 0.9350
-0.3786 0.0532 0.9330
-0.3751 0.0532 0.9320
-0.3712 0.0531 0.9300
