ply
    format ascii 1.0
    element vertex 63190
    property float x
    property float y
    property float z
    end_header
0.2824 -0.2721 0.7750
0.2838 -0.2710 0.7720
0.2853 -0.2700 0.7690
0.2867 -0.2689 0.7660
0.2881 -0.2679 0.7630
0.2894 -0.2668 0.7600
0.2908 -0.2658 0.7570
0.2921 -0.2647 0.7540
0.2934 -0.2637 0.7510
0.2947 -0.2626 0.7480
0.2960 -0.2616 0.7450
0.2976 -0.2609 0.7430
0.2989 -0.2598 0.7400
0.3005 -0.2591 0.7380
0.3021 -0.2584 0.7360
0.3041 -0.2581 0.7350
0.3057 -0.2574 0.7330
0.3077 -0.2570 0.7320
0.3097 -0.2567 0.7310
0.3116 -0.2563 0.7300
0.3136 -0.2559 0.7290
0.3156 -0.2556 0.7280
0.3180 -0.2556 0.7280
0.3199 -0.2552 0.7270
0.3223 -0.2552 0.7270
0.3243 -0.2549 0.7260
0.3262 -0.2545 0.7250
0.3286 -0.2545 0.7250
0.3305 -0.2542 0.7240
0.3324 -0.2538 0.7230
0.3344 -0.2535 0.7220
0.3367 -0.2535 0.7220
0.3386 -0.2531 0.7210
0.3405 -0.2528 0.7200
0.3424 -0.2524 0.7190
0.3448 -0.2524 0.7190
0.3467 -0.2521 0.7180
0.3490 -0.2521 0.7180
0.3509 -0.2517 0.7170
0.3533 -0.2517 0.7170
0.3551 -0.2514 0.7160
0.3575 -0.2514 0.7160
0.3599 -0.2514 0.7160
0.3622 -0.2514 0.7160
-1.9186 -1.2267 3.5270
-1.9113 -1.2295 3.5350
-1.9056 -1.2333 3.5460
-1.9014 -1.2382 3.5600
-1.8977 -1.2434 3.5750
-1.8933 -1.2483 3.5890
-1.8888 -1.2531 3.6030
-1.8848 -1.2584 3.6180
-1.8796 -1.2629 3.6310
-1.8738 -1.2670 3.6430
-1.8669 -1.2705 3.6530
-1.8595 -1.2737 3.6620
-1.8510 -1.2761 3.6690
-1.8424 -1.2785 3.6760
-1.8328 -1.2803 3.6810
-1.8231 -1.2820 3.6860
-1.8125 -1.2830 3.6890
-1.8018 -1.2841 3.6920
-1.7901 -1.2844 3.6930
-1.7790 -1.2851 3.6950
-1.7678 -1.2858 3.6970
-1.7570 -1.2869 3.7000
-1.7472 -1.2886 3.7050
-1.7383 -1.2910 3.7120
-1.7298 -1.2938 3.7200
-1.7222 -1.2973 3.7300
-1.7158 -1.3018 3.7430
-1.7103 -1.3070 3.7580
-1.7061 -1.3133 3.7760
-1.7031 -1.3206 3.7970
-1.7017 -1.3293 3.8220
-1.7007 -1.3383 3.8480
-1.7003 -1.3481 3.8760
-1.6997 -1.3578 3.9040
-1.6985 -1.3672 3.9310
-1.6963 -1.3759 3.9560
-1.6926 -1.3836 3.9780
-1.6876 -1.3902 3.9970
-1.6803 -1.3950 4.0110
-1.6717 -1.3989 4.0220
-1.6613 -1.4013 4.0290
-1.6501 -1.4030 4.0340
-1.6376 -1.4037 4.0360
-1.6243 -1.4037 4.0360
-1.6103 -1.4030 4.0340
-1.5958 -1.4020 4.0310
-1.5817 -1.4013 4.0290
-1.5681 -1.4010 4.0280
-1.5552 -1.4013 4.0290
-1.5431 -1.4023 4.0320
-1.5317 -1.4041 4.0370
-1.5215 -1.4069 4.0450
-1.5119 -1.4103 4.0550
-1.5033 -1.4149 4.0680
-1.4954 -1.4201 4.0830
-1.4878 -1.4256 4.0990
-1.4797 -1.4309 4.1140
-1.4708 -1.4354 4.1270
-1.4608 -1.4389 4.1370
-1.4496 -1.4413 4.1440
-1.4370 -1.4423 4.1470
-1.4234 -1.4423 4.1470
-1.4083 -1.4409 4.1430
-1.3934 -1.4396 4.1390
-1.3787 -1.4385 4.1360
-1.3645 -1.4378 4.1340
-1.3505 -1.4375 4.1330
-1.3369 -1.4375 4.1330
-1.3240 -1.4382 4.1350
-1.3107 -1.4385 4.1360
-1.2971 -1.4385 4.1360
-1.2822 -1.4371 4.1320
-1.2659 -1.4340 4.1230
-1.2477 -1.4288 4.1080
-1.2282 -1.4218 4.0880
-1.2079 -1.4138 4.0650
-1.1875 -1.4055 4.0410
-1.1675 -1.3975 4.0180
-1.1488 -1.3909 3.9990
-1.1311 -1.3853 3.9830
-1.1158 -1.3825 3.9750
-0.1771 -0.2866 0.8240
-0.1741 -0.2862 0.8230
-0.1712 -0.2859 0.8220
-0.1683 -0.2855 0.8210
-0.1652 -0.2849 0.8190
-0.1619 -0.2838 0.8160
-0.1586 -0.2828 0.8130
-0.1554 -0.2817 0.8100
-0.1520 -0.2803 0.8060
-0.1484 -0.2786 0.8010
-0.1450 -0.2772 0.7970
-0.1417 -0.2758 0.7930
-0.1385 -0.2748 0.7900
-0.1353 -0.2734 0.7860
-0.1322 -0.2723 0.7830
-0.1293 -0.2716 0.7810
-0.1264 -0.2709 0.7790
-0.1233 -0.2699 0.7760
-0.1206 -0.2695 0.7750
-0.1178 -0.2689 0.7730
-0.1151 -0.2685 0.7720
-0.1122 -0.2678 0.7700
-0.1096 -0.2675 0.7690
-0.1069 -0.2671 0.7680
-0.1044 -0.2671 0.7680
-0.1017 -0.2668 0.7670
-0.0990 -0.2664 0.7660
-0.0964 -0.2661 0.7650
-0.0939 -0.2661 0.7650
-0.0912 -0.2657 0.7640
-0.0887 -0.2657 0.7640
-0.0861 -0.2654 0.7630
-0.0836 -0.2654 0.7630
-0.0811 -0.2654 0.7630
-0.0786 -0.2654 0.7630
-0.0761 -0.2654 0.7630
-0.0735 -0.2654 0.7630
-0.0711 -0.2657 0.7640
-0.0686 -0.2657 0.7640
-0.0661 -0.2657 0.7640
-0.0636 -0.2657 0.7640
-0.0612 -0.2661 0.7650
-0.0586 -0.2661 0.7650
-0.0562 -0.2664 0.7660
-0.0537 -0.2664 0.7660
-0.0512 -0.2668 0.7670
-0.0487 -0.2668 0.7670
-0.0462 -0.2671 0.7680
-0.0438 -0.2675 0.7690
-0.0413 -0.2678 0.7700
-0.0388 -0.2682 0.7710
-0.0363 -0.2685 0.7720
-0.0338 -0.2689 0.7730
-0.0313 -0.2692 0.7740
-0.0288 -0.2699 0.7760
-0.0263 -0.2702 0.7770
-0.0238 -0.2709 0.7790
-0.0213 -0.2716 0.7810
-0.0188 -0.2727 0.7840
-0.0163 -0.2734 0.7860
-0.0138 -0.2748 0.7900
-0.0112 -0.2762 0.7940
-0.0086 -0.2779 0.7990
-0.0061 -0.2800 0.8050
-0.0034 -0.2821 0.8110
-0.0008 -0.2845 0.8180
0.0019 -0.2869 0.8250
0.0047 -0.2890 0.8310
0.0075 -0.2911 0.8370
0.0103 -0.2929 0.8420
0.0131 -0.2942 0.8460
0.0159 -0.2949 0.8480
0.0188 -0.2956 0.8500
0.0216 -0.2963 0.8520
0.0245 -0.2967 0.8530
0.1505 -1.6378 4.7090
0.1666 -1.6434 4.7250
0.1827 -1.6486 4.7400
0.1989 -1.6538 4.7550
0.2151 -1.6576 4.7660
0.2309 -1.6590 4.7700
0.2469 -1.6611 4.7760
0.2629 -1.6628 4.7810
0.2789 -1.6642 4.7850
0.2952 -1.6674 4.7940
0.3111 -1.6677 4.7950
0.3269 -1.6681 4.7960
0.3426 -1.6677 4.7950
0.3583 -1.6674 4.7940
0.3739 -1.6667 4.7920
0.3895 -1.6656 4.7890
0.4045 -1.6625 4.7800
0.4198 -1.6608 4.7750
0.4351 -1.6594 4.7710
0.4505 -1.6583 4.7680
0.4661 -1.6580 4.7670
0.4818 -1.6580 4.7670
0.4977 -1.6587 4.7690
0.5137 -1.6597 4.7720
0.5299 -1.6611 4.7760
0.5462 -1.6628 4.7810
0.5621 -1.6635 4.7830
0.5778 -1.6632 4.7820
0.5930 -1.6618 4.7780
0.6083 -1.6608 4.7750
0.6224 -1.6562 4.7620
0.6362 -1.6514 4.7480
0.6490 -1.6444 4.7280
0.6616 -1.6371 4.7070
0.6741 -1.6298 4.6860
0.6864 -1.6225 4.6650
0.6991 -1.6162 4.6470
0.7115 -1.6096 4.6280
0.7243 -1.6044 4.6130
0.7374 -1.5999 4.6000
0.7513 -1.5971 4.5920
0.7657 -1.5957 4.5880
0.7817 -1.5975 4.5930
0.7989 -1.6016 4.6050
0.8168 -1.6072 4.6210
0.8348 -1.6124 4.6360
0.8529 -1.6180 4.6520
0.8697 -1.6208 4.6600
0.8877 -1.6256 4.6740
0.9053 -1.6295 4.6850
0.9189 -1.6263 4.6760
0.9363 -1.6298 4.6860
0.9541 -1.6340 4.6980
0.9725 -1.6388 4.7120
0.9847 -1.6333 4.6960
1.0046 -1.6406 4.7170
1.0253 -1.6489 4.7410
1.0457 -1.6566 4.7630
0.2648 -0.2779 0.7990
0.2668 -0.2772 0.7970
0.2691 -0.2769 0.7960
0.2710 -0.2762 0.7940
0.2729 -0.2755 0.7920
0.2745 -0.2744 0.7890
0.2764 -0.2737 0.7870
0.2779 -0.2727 0.7840
0.2794 -0.2716 0.7810
0.2809 -0.2706 0.7780
0.2824 -0.2695 0.7750
0.2838 -0.2685 0.7720
0.2856 -0.2678 0.7700
0.2867 -0.2664 0.7660
0.2881 -0.2654 0.7630
0.2894 -0.2643 0.7600
0.2912 -0.2636 0.7580
0.2925 -0.2626 0.7550
0.2938 -0.2615 0.7520
0.2951 -0.2605 0.7490
0.2964 -0.2595 0.7460
0.2980 -0.2588 0.7440
0.2993 -0.2577 0.7410
0.3009 -0.2570 0.7390
0.3025 -0.2563 0.7370
0.3045 -0.2560 0.7360
0.3061 -0.2553 0.7340
0.3081 -0.2549 0.7330
0.3101 -0.2546 0.7320
0.3121 -0.2542 0.7310
0.3140 -0.2539 0.7300
0.3160 -0.2535 0.7290
0.3180 -0.2532 0.7280
0.3204 -0.2532 0.7280
0.3223 -0.2529 0.7270
0.3243 -0.2525 0.7260
0.3266 -0.2525 0.7260
0.3286 -0.2522 0.7250
0.3305 -0.2518 0.7240
0.3324 -0.2515 0.7230
0.3344 -0.2511 0.7220
0.3367 -0.2511 0.7220
0.3386 -0.2508 0.7210
0.3405 -0.2504 0.7200
0.3429 -0.2504 0.7200
0.3448 -0.2501 0.7190
0.3467 -0.2497 0.7180
0.3490 -0.2497 0.7180
0.3514 -0.2497 0.7180
0.3533 -0.2494 0.7170
0.3556 -0.2494 0.7170
0.3580 -0.2494 0.7170
0.3604 -0.2494 0.7170
0.3627 -0.2494 0.7170
-1.9132 -1.2116 3.5170
-1.9059 -1.2144 3.5250
-1.9002 -1.2182 3.5360
-1.8955 -1.2227 3.5490
-1.8913 -1.2275 3.5630
-1.8870 -1.2323 3.5770
-1.8825 -1.2371 3.5910
-1.8780 -1.2420 3.6050
-1.8729 -1.2464 3.6180
-1.8671 -1.2506 3.6300
-1.8603 -1.2540 3.6400
-1.8524 -1.2568 3.6480
-1.8444 -1.2595 3.6560
-1.8354 -1.2616 3.6620
-1.8263 -1.2637 3.6680
-1.8162 -1.2650 3.6720
-1.8061 -1.2664 3.6760
-1.7955 -1.2675 3.6790
-1.7843 -1.2681 3.6810
-1.7732 -1.2688 3.6830
-1.7625 -1.2699 3.6860
-1.7523 -1.2712 3.6900
-1.7425 -1.2730 3.6950
-1.7336 -1.2754 3.7020
-1.7256 -1.2785 3.7110
-1.7185 -1.2823 3.7220
-1.7126 -1.2871 3.7360
-1.7081 -1.2930 3.7530
-1.7043 -1.2995 3.7720
-1.7022 -1.3074 3.7950
-1.7017 -1.3167 3.8220
-1.7011 -1.3260 3.8490
-1.7011 -1.3360 3.8780
-1.7014 -1.3464 3.9080
-1.7007 -1.3560 3.9360
-1.6989 -1.3650 3.9620
-1.6956 -1.3729 3.9850
-1.6910 -1.3798 4.0050
-1.6845 -1.3853 4.0210
-1.6762 -1.3894 4.0330
-1.6663 -1.3922 4.0410
-1.6550 -1.3939 4.0460
-1.6429 -1.3949 4.0490
-1.6292 -1.3946 4.0480
-1.6151 -1.3939 4.0460
-1.6009 -1.3932 4.0440
-1.5865 -1.3922 4.0410
-1.5728 -1.3918 4.0400
-1.5591 -1.3915 4.0390
-1.5466 -1.3922 4.0410
-1.5352 -1.3939 4.0460
-1.5245 -1.3963 4.0530
-1.5149 -1.3998 4.0630
-1.5063 -1.4042 4.0760
-1.4984 -1.4094 4.0910
-1.4907 -1.4149 4.1070
-1.4833 -1.4208 4.1240
-1.4754 -1.4263 4.1400
-1.4664 -1.4308 4.1530
-1.4566 -1.4345 4.1640
-1.4453 -1.4370 4.1710
-1.4333 -1.4387 4.1760
-1.4199 -1.4390 4.1770
-1.4062 -1.4390 4.1770
-1.3924 -1.4390 4.1770
-1.3790 -1.4394 4.1780
-1.3656 -1.4397 4.1790
-1.3521 -1.4401 4.1800
-1.3387 -1.4404 4.1810
-1.3249 -1.4404 4.1810
-1.3102 -1.4394 4.1780
-1.2943 -1.4370 4.1710
-1.2766 -1.4325 4.1580
-1.2568 -1.4256 4.1380
-1.2360 -1.4173 4.1140
-1.2147 -1.4084 4.0880
-1.1934 -1.3991 4.0610
-1.1730 -1.3908 4.0370
-1.1537 -1.3836 4.0160
-1.1359 -1.3780 4.0000
-1.1202 -1.3749 3.9910
-0.1775 -0.2846 0.8260
-0.1748 -0.2846 0.8260
-0.1718 -0.2842 0.8250
-0.1687 -0.2835 0.8230
-0.1656 -0.2828 0.8210
-0.1623 -0.2818 0.8180
-0.1588 -0.2804 0.8140
-0.1554 -0.2791 0.8100
-0.1520 -0.2777 0.8060
-0.1486 -0.2763 0.8020
-0.1450 -0.2746 0.7970
-0.1417 -0.2732 0.7930
-0.1385 -0.2722 0.7900
-0.1353 -0.2708 0.7860
-0.1322 -0.2698 0.7830
-0.1293 -0.2691 0.7810
-0.1262 -0.2680 0.7780
-0.1233 -0.2673 0.7760
-0.1205 -0.2667 0.7740
-0.1178 -0.2663 0.7730
-0.1149 -0.2656 0.7710
-0.1122 -0.2653 0.7700
-0.1096 -0.2649 0.7690
-0.1069 -0.2646 0.7680
-0.1042 -0.2642 0.7670
-0.1017 -0.2642 0.7670
-0.0990 -0.2639 0.7660
-0.0964 -0.2636 0.7650
-0.0939 -0.2636 0.7650
-0.0912 -0.2632 0.7640
-0.0887 -0.2632 0.7640
-0.0862 -0.2632 0.7640
-0.0836 -0.2629 0.7630
-0.0811 -0.2629 0.7630
-0.0786 -0.2629 0.7630
-0.0762 -0.2632 0.7640
-0.0736 -0.2632 0.7640
-0.0711 -0.2632 0.7640
-0.0686 -0.2632 0.7640
-0.0661 -0.2632 0.7640
-0.0637 -0.2636 0.7650
-0.0612 -0.2636 0.7650
-0.0587 -0.2639 0.7660
-0.0562 -0.2639 0.7660
-0.0537 -0.2642 0.7670
-0.0512 -0.2642 0.7670
-0.0488 -0.2646 0.7680
-0.0462 -0.2646 0.7680
-0.0438 -0.2649 0.7690
-0.0413 -0.2653 0.7700
-0.0388 -0.2656 0.7710
-0.0363 -0.2660 0.7720
-0.0338 -0.2663 0.7730
-0.0313 -0.2670 0.7750
-0.0288 -0.2673 0.7760
-0.0263 -0.2680 0.7780
-0.0238 -0.2684 0.7790
-0.0213 -0.2694 0.7820
-0.0188 -0.2701 0.7840
-0.0163 -0.2711 0.7870
-0.0138 -0.2722 0.7900
-0.0112 -0.2739 0.7950
-0.0087 -0.2756 0.8000
-0.0061 -0.2777 0.8060
-0.0034 -0.2797 0.8120
-0.0008 -0.2822 0.8190
0.0019 -0.2846 0.8260
0.0047 -0.2870 0.8330
0.0075 -0.2890 0.8390
0.0103 -0.2908 0.8440
0.0131 -0.2921 0.8480
0.0160 -0.2932 0.8510
0.0188 -0.2939 0.8530
0.0217 -0.2942 0.8540
0.0245 -0.2946 0.8550
0.1521 -1.6395 4.7590
0.1683 -1.6450 4.7750
0.1847 -1.6506 4.7910
0.2010 -1.6557 4.8060
0.2174 -1.6595 4.8170
0.2331 -1.6585 4.8140
0.2492 -1.6602 4.8190
0.2653 -1.6616 4.8230
0.2813 -1.6626 4.8260
0.2979 -1.6667 4.8380
0.3138 -1.6667 4.8380
0.3296 -1.6661 4.8360
0.3453 -1.6650 4.8330
0.3611 -1.6643 4.8310
0.3768 -1.6633 4.8280
0.3924 -1.6623 4.8250
0.4071 -1.6574 4.8110
0.4225 -1.6557 4.8060
0.4381 -1.6550 4.8040
0.4538 -1.6547 4.8030
0.4696 -1.6547 4.8030
0.4857 -1.6554 4.8050
0.5018 -1.6564 4.8080
0.5180 -1.6578 4.8120
0.5343 -1.6592 4.8160
0.5505 -1.6602 4.8190
0.5663 -1.6599 4.8180
0.5817 -1.6588 4.8150
0.5966 -1.6561 4.8070
0.6123 -1.6557 4.8060
0.6261 -1.6506 4.7910
0.6402 -1.6461 4.7780
0.6532 -1.6392 4.7580
0.6659 -1.6320 4.7370
0.6784 -1.6247 4.7160
0.6912 -1.6182 4.6970
0.7045 -1.6133 4.6830
0.7176 -1.6082 4.6680
0.7309 -1.6037 4.6550
0.7447 -1.6003 4.6450
0.7591 -1.5985 4.6400
0.7737 -1.5972 4.6360
0.7905 -1.6003 4.6450
0.8084 -1.6054 4.6600
0.8269 -1.6116 4.6780
0.8447 -1.6161 4.6910
0.8634 -1.6223 4.7090
0.8791 -1.6227 4.7100
0.8972 -1.6275 4.7240
0.9147 -1.6309 4.7340
0.9254 -1.6223 4.7090
0.9425 -1.6251 4.7170
0.9604 -1.6292 4.7290
0.9785 -1.6333 4.7410
0.2668 -0.2746 0.7970
0.2687 -0.2739 0.7950
0.2710 -0.2735 0.7940
0.2729 -0.2729 0.7920
0.2745 -0.2718 0.7890
0.2764 -0.2711 0.7870
0.2779 -0.2701 0.7840
0.2794 -0.2691 0.7810
0.2809 -0.2680 0.7780
0.2827 -0.2673 0.7760
0.2842 -0.2663 0.7730
0.2856 -0.2653 0.7700
0.2870 -0.2642 0.7670
0.2884 -0.2632 0.7640
0.2898 -0.2622 0.7610
0.2912 -0.2611 0.7580
0.2925 -0.2601 0.7550
0.2942 -0.2594 0.7530
0.2955 -0.2584 0.7500
0.2968 -0.2574 0.7470
0.2980 -0.2563 0.7440
0.2997 -0.2556 0.7420
0.3013 -0.2549 0.7400
0.3029 -0.2542 0.7380
0.3045 -0.2536 0.7360
0.3065 -0.2532 0.7350
0.3085 -0.2529 0.7340
0.3105 -0.2525 0.7330
0.3121 -0.2518 0.7310
0.3140 -0.2515 0.7300
0.3164 -0.2515 0.7300
0.3184 -0.2511 0.7290
0.3204 -0.2508 0.7280
0.3223 -0.2505 0.7270
0.3247 -0.2505 0.7270
0.3266 -0.2501 0.7260
0.3286 -0.2498 0.7250
0.3305 -0.2494 0.7240
0.3324 -0.2491 0.7230
0.3348 -0.2491 0.7230
0.3367 -0.2487 0.7220
0.3386 -0.2484 0.7210
0.3410 -0.2484 0.7210
0.3429 -0.2480 0.7200
0.3448 -0.2477 0.7190
0.3472 -0.2477 0.7190
0.3495 -0.2477 0.7190
0.3514 -0.2474 0.7180
0.3538 -0.2474 0.7180
0.3561 -0.2474 0.7180
0.3585 -0.2474 0.7180
0.3604 -0.2470 0.7170
0.3627 -0.2470 0.7170
-1.9067 -1.1960 3.5050
-1.8994 -1.1987 3.5130
-1.8933 -1.2021 3.5230
-1.8875 -1.2059 3.5340
-1.8828 -1.2103 3.5470
-1.8780 -1.2147 3.5600
-1.8736 -1.2195 3.5740
-1.8691 -1.2243 3.5880
-1.8641 -1.2287 3.6010
-1.8579 -1.2325 3.6120
-1.8516 -1.2362 3.6230
-1.8443 -1.2393 3.6320
-1.8363 -1.2420 3.6400
-1.8279 -1.2444 3.6470
-1.8188 -1.2465 3.6530
-1.8093 -1.2482 3.6580
-1.7997 -1.2499 3.6630
-1.7891 -1.2509 3.6660
-1.7785 -1.2519 3.6690
-1.7679 -1.2530 3.6720
-1.7577 -1.2543 3.6760
-1.7480 -1.2560 3.6810
-1.7387 -1.2581 3.6870
-1.7303 -1.2608 3.6950
-1.7223 -1.2639 3.7040
-1.7152 -1.2676 3.7150
-1.7099 -1.2728 3.7300
-1.7058 -1.2789 3.7480
-1.7025 -1.2857 3.7680
-1.7009 -1.2939 3.7920
-1.7008 -1.3035 3.8200
-1.7007 -1.3130 3.8480
-1.7011 -1.3233 3.8780
-1.7010 -1.3331 3.9070
-1.7007 -1.3430 3.9360
-1.6993 -1.3523 3.9630
-1.6960 -1.3601 3.9860
-1.6914 -1.3669 4.0060
-1.6853 -1.3727 4.0230
-1.6775 -1.3772 4.0360
-1.6679 -1.3802 4.0450
-1.6570 -1.3823 4.0510
-1.6449 -1.3833 4.0540
-1.6316 -1.3833 4.0540
-1.6170 -1.3823 4.0510
-1.6025 -1.3813 4.0480
-1.5884 -1.3806 4.0460
-1.5739 -1.3796 4.0430
-1.5602 -1.3792 4.0420
-1.5473 -1.3796 4.0430
-1.5352 -1.3806 4.0460
-1.5245 -1.3830 4.0530
-1.5149 -1.3864 4.0630
-1.5063 -1.3908 4.0760
-1.4984 -1.3959 4.0910
-1.4914 -1.4021 4.1090
-1.4848 -1.4086 4.1280
-1.4779 -1.4150 4.1470
-1.4707 -1.4212 4.1650
-1.4625 -1.4266 4.1810
-1.4533 -1.4311 4.1940
-1.4429 -1.4345 4.2040
-1.4315 -1.4369 4.2110
-1.4196 -1.4389 4.2170
-1.4074 -1.4406 4.2220
-1.3952 -1.4423 4.2270
-1.3822 -1.4434 4.2300
-1.3690 -1.4440 4.2320
-1.3554 -1.4444 4.2330
-1.3405 -1.4434 4.2300
-1.3247 -1.4413 4.2240
-1.3070 -1.4372 4.2120
-1.2873 -1.4307 4.1930
-1.2663 -1.4225 4.1690
-1.2438 -1.4127 4.1400
-1.2213 -1.4024 4.1100
-1.1989 -1.3922 4.0800
-1.1777 -1.3830 4.0530
-1.1574 -1.3748 4.0290
-1.1393 -1.3690 4.0120
-1.1236 -1.3659 4.0030
-0.1781 -0.2829 0.8290
-0.1752 -0.2825 0.8280
-0.1723 -0.2822 0.8270
-0.1691 -0.2815 0.8250
-0.1660 -0.2808 0.8230
-0.1625 -0.2795 0.8190
-0.1592 -0.2784 0.8160
-0.1556 -0.2767 0.8110
-0.1522 -0.2754 0.8070
-0.1486 -0.2737 0.8020
-0.1450 -0.2720 0.7970
-0.1417 -0.2706 0.7930
-0.1384 -0.2692 0.7890
-0.1353 -0.2682 0.7860
-0.1322 -0.2672 0.7830
-0.1291 -0.2662 0.7800
-0.1262 -0.2655 0.7780
-0.1233 -0.2648 0.7760
-0.1205 -0.2641 0.7740
-0.1176 -0.2634 0.7720
-0.1149 -0.2631 0.7710
-0.1122 -0.2627 0.7700
-0.1096 -0.2624 0.7690
-0.1069 -0.2621 0.7680
-0.1042 -0.2617 0.7670
-0.1016 -0.2614 0.7660
-0.0990 -0.2614 0.7660
-0.0964 -0.2610 0.7650
-0.0939 -0.2610 0.7650
-0.0912 -0.2607 0.7640
-0.0887 -0.2607 0.7640
-0.0862 -0.2607 0.7640
-0.0837 -0.2607 0.7640
-0.0812 -0.2607 0.7640
-0.0787 -0.2607 0.7640
-0.0762 -0.2607 0.7640
-0.0736 -0.2607 0.7640
-0.0711 -0.2607 0.7640
-0.0687 -0.2610 0.7650
-0.0662 -0.2610 0.7650
-0.0637 -0.2610 0.7650
-0.0612 -0.2614 0.7660
-0.0587 -0.2614 0.7660
-0.0563 -0.2617 0.7670
-0.0537 -0.2617 0.7670
-0.0513 -0.2621 0.7680
-0.0488 -0.2621 0.7680
-0.0463 -0.2624 0.7690
-0.0438 -0.2627 0.7700
-0.0413 -0.2631 0.7710
-0.0388 -0.2634 0.7720
-0.0364 -0.2638 0.7730
-0.0339 -0.2641 0.7740
-0.0313 -0.2644 0.7750
-0.0289 -0.2651 0.7770
-0.0263 -0.2655 0.7780
-0.0238 -0.2662 0.7800
-0.0213 -0.2668 0.7820
-0.0188 -0.2675 0.7840
-0.0163 -0.2685 0.7870
-0.0138 -0.2699 0.7910
-0.0112 -0.2713 0.7950
-0.0087 -0.2733 0.8010
-0.0061 -0.2754 0.8070
-0.0034 -0.2774 0.8130
-0.0008 -0.2798 0.8200
0.0019 -0.2822 0.8270
0.0047 -0.2846 0.8340
0.0075 -0.2866 0.8400
0.0103 -0.2883 0.8450
0.0132 -0.2897 0.8490
0.0160 -0.2907 0.8520
0.0189 -0.2917 0.8550
0.0217 -0.2921 0.8560
0.0245 -0.2921 0.8560
0.1532 -1.6362 4.7950
0.1696 -1.6420 4.8120
0.1861 -1.6474 4.8280
0.2026 -1.6525 4.8430
0.2190 -1.6559 4.8530
0.2343 -1.6515 4.8400
0.2505 -1.6529 4.8440
0.2666 -1.6539 4.8470
0.2826 -1.6546 4.8490
0.2999 -1.6617 4.8700
0.3159 -1.6614 4.8690
0.3317 -1.6604 4.8660
0.3474 -1.6590 4.8620
0.3631 -1.6576 4.8580
0.3789 -1.6566 4.8550
0.3946 -1.6556 4.8520
0.4086 -1.6478 4.8290
0.4242 -1.6464 4.8250
0.4399 -1.6457 4.8230
0.4557 -1.6457 4.8230
0.4718 -1.6464 4.8250
0.4879 -1.6471 4.8270
0.5041 -1.6481 4.8300
0.5205 -1.6498 4.8350
0.5369 -1.6512 4.8390
0.5529 -1.6515 4.8400
0.5687 -1.6512 4.8390
0.5840 -1.6495 4.8340
0.5988 -1.6464 4.8250
0.6156 -1.6488 4.8320
0.6297 -1.6440 4.8180
0.6446 -1.6416 4.8110
0.6578 -1.6351 4.7920
0.6708 -1.6283 4.7720
0.6838 -1.6218 4.7530
0.6969 -1.6160 4.7360
0.7114 -1.6136 4.7290
0.7251 -1.6095 4.7170
0.7389 -1.6058 4.7060
0.7531 -1.6031 4.6980
0.7680 -1.6017 4.6940
0.7822 -1.5993 4.6870
0.7994 -1.6027 4.6970
0.8178 -1.6085 4.7140
0.8365 -1.6147 4.7320
0.8531 -1.6167 4.7380
0.8716 -1.6222 4.7540
0.8849 -1.6177 4.7410
0.9029 -1.6222 4.7540
0.9205 -1.6256 4.7640
0.2665 -0.2716 0.7960
0.2687 -0.2713 0.7950
0.2710 -0.2709 0.7940
0.2729 -0.2702 0.7920
0.2745 -0.2692 0.7890
0.2764 -0.2685 0.7870
0.2779 -0.2675 0.7840
0.2794 -0.2665 0.7810
0.2813 -0.2658 0.7790
0.2827 -0.2648 0.7760
0.2842 -0.2638 0.7730
0.2860 -0.2631 0.7710
0.2874 -0.2621 0.7680
0.2888 -0.2610 0.7650
0.2902 -0.2600 0.7620
0.2915 -0.2590 0.7590
0.2929 -0.2580 0.7560
0.2942 -0.2569 0.7530
0.2959 -0.2563 0.7510
0.2972 -0.2552 0.7480
0.2984 -0.2542 0.7450
0.3001 -0.2535 0.7430
0.3017 -0.2528 0.7410
0.3033 -0.2522 0.7390
0.3049 -0.2515 0.7370
0.3069 -0.2511 0.7360
0.3085 -0.2505 0.7340
0.3105 -0.2501 0.7330
0.3125 -0.2498 0.7320
0.3145 -0.2494 0.7310
0.3164 -0.2491 0.7300
0.3184 -0.2487 0.7290
0.3204 -0.2484 0.7280
0.3228 -0.2484 0.7280
0.3247 -0.2481 0.7270
0.3266 -0.2477 0.7260
0.3286 -0.2474 0.7250
0.3305 -0.2470 0.7240
0.3329 -0.2470 0.7240
0.3348 -0.2467 0.7230
0.3367 -0.2464 0.7220
0.3391 -0.2464 0.7220
0.3410 -0.2460 0.7210
0.3429 -0.2457 0.7200
0.3453 -0.2457 0.7200
0.3472 -0.2453 0.7190
0.3495 -0.2453 0.7190
0.3519 -0.2453 0.7190
0.3543 -0.2453 0.7190
0.3566 -0.2453 0.7190
0.3585 -0.2450 0.7180
0.3609 -0.2450 0.7180
0.3632 -0.2450 0.7180
-1.8990 -1.1797 3.4910
-1.8913 -1.1821 3.4980
-1.8841 -1.1848 3.5060
-1.8785 -1.1885 3.5170
-1.8727 -1.1922 3.5280
-1.8680 -1.1966 3.5410
-1.8631 -1.2010 3.5540
-1.8582 -1.2054 3.5670
-1.8532 -1.2098 3.5800
-1.8476 -1.2138 3.5920
-1.8419 -1.2179 3.6040
-1.8346 -1.2209 3.6130
-1.8273 -1.2240 3.6220
-1.8198 -1.2270 3.6310
-1.8114 -1.2294 3.6380
-1.8024 -1.2314 3.6440
-1.7933 -1.2334 3.6500
-1.7833 -1.2348 3.6540
-1.7732 -1.2361 3.6580
-1.7631 -1.2375 3.6620
-1.7534 -1.2392 3.6670
-1.7442 -1.2412 3.6730
-1.7354 -1.2436 3.6800
-1.7270 -1.2463 3.6880
-1.7196 -1.2497 3.6980
-1.7129 -1.2537 3.7100
-1.7076 -1.2588 3.7250
-1.7035 -1.2649 3.7430
-1.7007 -1.2720 3.7640
-1.6991 -1.2801 3.7880
-1.6986 -1.2892 3.8150
-1.6984 -1.2987 3.8430
-1.6990 -1.3088 3.8730
-1.6988 -1.3186 3.9020
-1.6981 -1.3281 3.9300
-1.6967 -1.3372 3.9570
-1.6939 -1.3453 3.9810
-1.6893 -1.3521 4.0010
-1.6836 -1.3581 4.0190
-1.6762 -1.3629 4.0330
-1.6671 -1.3662 4.0430
-1.6562 -1.3683 4.0490
-1.6441 -1.3693 4.0520
-1.6308 -1.3693 4.0520
-1.6163 -1.3683 4.0490
-1.6017 -1.3673 4.0460
-1.5869 -1.3659 4.0420
-1.5724 -1.3649 4.0390
-1.5579 -1.3639 4.0360
-1.5446 -1.3639 4.0360
-1.5321 -1.3646 4.0380
-1.5211 -1.3666 4.0440
-1.5115 -1.3700 4.0540
-1.5030 -1.3744 4.0670
-1.4958 -1.3801 4.0840
-1.4896 -1.3869 4.1040
-1.4844 -1.3946 4.1270
-1.4790 -1.4024 4.1500
-1.4738 -1.4105 4.1740
-1.4674 -1.4176 4.1950
-1.4606 -1.4244 4.2150
-1.4522 -1.4298 4.2310
-1.4430 -1.4345 4.2450
-1.4334 -1.4389 4.2580
-1.4231 -1.4426 4.2690
-1.4120 -1.4457 4.2780
-1.3999 -1.4477 4.2840
-1.3871 -1.4490 4.2880
-1.3730 -1.4490 4.2880
-1.3573 -1.4473 4.2830
-1.3397 -1.4436 4.2720
-1.3204 -1.4379 4.2550
-1.2990 -1.4298 4.2310
-1.2760 -1.4196 4.2010
-1.2522 -1.4085 4.1680
-1.2281 -1.3967 4.1330
-1.2048 -1.3855 4.1000
-1.1823 -1.3750 4.0690
-1.1612 -1.3659 4.0420
-1.1428 -1.3598 4.0240
-1.1261 -1.3558 4.0120
-0.1786 -0.2808 0.8310
-0.1758 -0.2808 0.8310
-0.1727 -0.2801 0.8290
-0.1695 -0.2795 0.8270
-0.1662 -0.2785 0.8240
-0.1629 -0.2774 0.8210
-0.1594 -0.2761 0.8170
-0.1558 -0.2744 0.8120
-0.1522 -0.2727 0.8070
-0.1486 -0.2710 0.8020
-0.1450 -0.2693 0.7970
-0.1417 -0.2680 0.7930
-0.1384 -0.2666 0.7890
-0.1353 -0.2656 0.7860
-0.1322 -0.2646 0.7830
-0.1291 -0.2636 0.7800
-0.1260 -0.2626 0.7770
-0.1232 -0.2619 0.7750
-0.1205 -0.2616 0.7740
-0.1176 -0.2609 0.7720
-0.1149 -0.2605 0.7710
-0.1122 -0.2602 0.7700
-0.1096 -0.2599 0.7690
-0.1069 -0.2595 0.7680
-0.1042 -0.2592 0.7670
-0.1016 -0.2589 0.7660
-0.0990 -0.2589 0.7660
-0.0964 -0.2585 0.7650
-0.0939 -0.2585 0.7650
-0.0912 -0.2582 0.7640
-0.0887 -0.2582 0.7640
-0.0862 -0.2582 0.7640
-0.0837 -0.2582 0.7640
-0.0812 -0.2582 0.7640
-0.0787 -0.2582 0.7640
-0.0762 -0.2582 0.7640
-0.0737 -0.2585 0.7650
-0.0712 -0.2585 0.7650
-0.0687 -0.2585 0.7650
-0.0662 -0.2585 0.7650
-0.0638 -0.2589 0.7660
-0.0612 -0.2589 0.7660
-0.0588 -0.2592 0.7670
-0.0563 -0.2592 0.7670
-0.0538 -0.2595 0.7680
-0.0513 -0.2599 0.7690
-0.0488 -0.2599 0.7690
-0.0463 -0.2602 0.7700
-0.0439 -0.2605 0.7710
-0.0413 -0.2605 0.7710
-0.0388 -0.2609 0.7720
-0.0364 -0.2616 0.7740
-0.0339 -0.2619 0.7750
-0.0314 -0.2622 0.7760
-0.0289 -0.2626 0.7770
-0.0264 -0.2632 0.7790
-0.0238 -0.2636 0.7800
-0.0213 -0.2643 0.7820
-0.0188 -0.2653 0.7850
-0.0163 -0.2663 0.7880
-0.0138 -0.2673 0.7910
-0.0112 -0.2690 0.7960
-0.0087 -0.2707 0.8010
-0.0061 -0.2727 0.8070
-0.0035 -0.2751 0.8140
-0.0008 -0.2774 0.8210
0.0019 -0.2801 0.8290
0.0047 -0.2822 0.8350
0.0075 -0.2842 0.8410
0.0103 -0.2862 0.8470
0.0132 -0.2876 0.8510
0.0161 -0.2886 0.8540
0.0189 -0.2893 0.8560
0.0217 -0.2896 0.8570
0.0246 -0.2899 0.8580
0.1539 -1.6275 4.8160
0.1704 -1.6335 4.8340
0.1868 -1.6379 4.8470
0.2034 -1.6430 4.8620
0.2198 -1.6464 4.8720
0.3010 -1.6518 4.8880
0.3170 -1.6511 4.8860
0.3328 -1.6498 4.8820
0.3485 -1.6484 4.8780
0.3643 -1.6471 4.8740
0.3801 -1.6460 4.8710
0.3959 -1.6450 4.8680
0.6178 -1.6386 4.8490
0.6320 -1.6342 4.8360
0.6483 -1.6352 4.8390
0.6621 -1.6298 4.8230
0.6754 -1.6237 4.8050
0.6888 -1.6180 4.7880
0.7025 -1.6133 4.7740
0.7186 -1.6143 4.7770
0.7328 -1.6109 4.7670
0.7471 -1.6079 4.7580
0.7616 -1.6055 4.7510
0.7768 -1.6045 4.7480
0.7899 -1.5994 4.7330
0.8070 -1.6025 4.7420
0.8254 -1.6079 4.7580
0.8439 -1.6133 4.7740
0.8582 -1.6106 4.7660
0.8764 -1.6153 4.7800
0.2665 -0.2690 0.7960
0.2687 -0.2687 0.7950
0.2707 -0.2680 0.7930
0.2726 -0.2673 0.7910
0.2745 -0.2666 0.7890
0.2764 -0.2659 0.7870
0.2779 -0.2649 0.7840
0.2798 -0.2643 0.7820
0.2813 -0.2632 0.7790
0.2827 -0.2622 0.7760
0.2846 -0.2616 0.7740
0.2860 -0.2605 0.7710
0.2874 -0.2595 0.7680
0.2888 -0.2585 0.7650
0.2906 -0.2578 0.7630
0.2919 -0.2568 0.7600
0.2933 -0.2558 0.7570
0.2946 -0.2548 0.7540
0.2959 -0.2538 0.7510
0.2976 -0.2531 0.7490
0.2988 -0.2521 0.7460
0.3005 -0.2514 0.7440
0.3021 -0.2507 0.7420
0.3037 -0.2501 0.7400
0.3053 -0.2494 0.7380
0.3069 -0.2487 0.7360
0.3089 -0.2484 0.7350
0.3109 -0.2480 0.7340
0.3129 -0.2477 0.7330
0.3149 -0.2474 0.7320
0.3169 -0.2470 0.7310
0.3188 -0.2467 0.7300
0.3208 -0.2463 0.7290
0.3228 -0.2460 0.7280
0.3247 -0.2457 0.7270
0.3266 -0.2453 0.7260
0.3290 -0.2453 0.7260
0.3310 -0.2450 0.7250
0.3329 -0.2447 0.7240
0.3348 -0.2443 0.7230
0.3372 -0.2443 0.7230
0.3391 -0.2440 0.7220
0.3410 -0.2436 0.7210
0.3434 -0.2436 0.7210
0.3453 -0.2433 0.7200
0.3476 -0.2433 0.7200
0.3500 -0.2433 0.7200
0.3524 -0.2433 0.7200
0.3543 -0.2430 0.7190
0.3566 -0.2430 0.7190
0.3590 -0.2430 0.7190
0.3614 -0.2430 0.7190
0.3637 -0.2430 0.7190
-1.8898 -1.1625 3.4740
-1.8821 -1.1649 3.4810
-1.8750 -1.1675 3.4890
-1.8683 -1.1706 3.4980
-1.8626 -1.1742 3.5090
-1.8574 -1.1783 3.5210
-1.8521 -1.1823 3.5330
-1.8473 -1.1866 3.5460
-1.8423 -1.1910 3.5590
-1.8368 -1.1950 3.5710
-1.8312 -1.1990 3.5830
-1.8255 -1.2030 3.5950
-1.8187 -1.2064 3.6050
-1.8113 -1.2094 3.6140
-1.8039 -1.2124 3.6230
-1.7959 -1.2151 3.6310
-1.7869 -1.2171 3.6370
-1.7779 -1.2191 3.6430
-1.7688 -1.2211 3.6490
-1.7592 -1.2228 3.6540
-1.7501 -1.2248 3.6600
-1.7409 -1.2268 3.6660
-1.7326 -1.2295 3.6740
-1.7247 -1.2325 3.6830
-1.7172 -1.2358 3.6930
-1.7106 -1.2398 3.7050
-1.7053 -1.2448 3.7200
-1.7008 -1.2505 3.7370
-1.6980 -1.2576 3.7580
-1.6959 -1.2653 3.7810
-1.6951 -1.2740 3.8070
-1.6949 -1.2833 3.8350
-1.6946 -1.2927 3.8630
-1.6945 -1.3024 3.8920
-1.6933 -1.3114 3.9190
-1.6920 -1.3205 3.9460
-1.6892 -1.3285 3.9700
-1.6850 -1.3355 3.9910
-1.6794 -1.3416 4.0090
-1.6725 -1.3466 4.0240
-1.6638 -1.3503 4.0350
-1.6534 -1.3526 4.0420
-1.6417 -1.3539 4.0460
-1.6280 -1.3536 4.0450
-1.6135 -1.3526 4.0420
-1.5986 -1.3513 4.0380
-1.5833 -1.3496 4.0330
-1.5681 -1.3479 4.0280
-1.5533 -1.3466 4.0240
-1.5393 -1.3459 4.0220
-1.5268 -1.3466 4.0240
-1.5154 -1.3483 4.0290
-1.5059 -1.3516 4.0390
-1.4978 -1.3563 4.0530
-1.4914 -1.3626 4.0720
-1.4864 -1.3703 4.0950
-1.4826 -1.3794 4.1220
-1.4794 -1.3891 4.1510
-1.4759 -1.3988 4.1800
-1.4716 -1.4078 4.2070
-1.4668 -1.4165 4.2330
-1.4611 -1.4245 4.2570
-1.4546 -1.4319 4.2790
-1.4469 -1.4383 4.2980
-1.4384 -1.4440 4.3150
-1.4292 -1.4490 4.3300
-1.4182 -1.4523 4.3400
-1.4058 -1.4543 4.3460
-1.3912 -1.4540 4.3450
-1.3747 -1.4517 4.3380
-1.3560 -1.4470 4.3240
-1.3347 -1.4393 4.3010
-1.3116 -1.4296 4.2720
-1.2872 -1.4182 4.2380
-1.2621 -1.4058 4.2010
-1.2367 -1.3928 4.1620
-1.2122 -1.3804 4.1250
-1.1878 -1.3680 4.0880
-1.1652 -1.3573 4.0560
-1.1459 -1.3503 4.0350
-1.1287 -1.3456 4.0210
-0.1792 -0.2791 0.8340
-0.1762 -0.2788 0.8330
-0.1733 -0.2784 0.8320
-0.1699 -0.2774 0.8290
-0.1666 -0.2764 0.8260
-0.1631 -0.2751 0.8220
-0.1596 -0.2737 0.8180
-0.1560 -0.2721 0.8130
-0.1522 -0.2701 0.8070
-0.1486 -0.2684 0.8020
-0.1450 -0.2667 0.7970
-0.1417 -0.2654 0.7930
-0.1384 -0.2640 0.7890
-0.1351 -0.2627 0.7850
-0.1320 -0.2617 0.7820
-0.1291 -0.2610 0.7800
-0.1260 -0.2600 0.7770
-0.1232 -0.2593 0.7750
-0.1203 -0.2587 0.7730
-0.1176 -0.2583 0.7720
-0.1149 -0.2580 0.7710
-0.1122 -0.2577 0.7700
-0.1096 -0.2573 0.7690
-0.1069 -0.2570 0.7680
-0.1042 -0.2567 0.7670
-0.1016 -0.2563 0.7660
-0.0990 -0.2563 0.7660
-0.0964 -0.2560 0.7650
-0.0939 -0.2560 0.7650
-0.0914 -0.2560 0.7650
-0.0888 -0.2560 0.7650
-0.0862 -0.2557 0.7640
-0.0838 -0.2560 0.7650
-0.0813 -0.2560 0.7650
-0.0788 -0.2560 0.7650
-0.0763 -0.2560 0.7650
-0.0737 -0.2560 0.7650
-0.0713 -0.2563 0.7660
-0.0688 -0.2563 0.7660
-0.0663 -0.2563 0.7660
-0.0638 -0.2567 0.7670
-0.0613 -0.2567 0.7670
-0.0589 -0.2570 0.7680
-0.0563 -0.2570 0.7680
-0.0539 -0.2573 0.7690
-0.0513 -0.2573 0.7690
-0.0489 -0.2577 0.7700
-0.0464 -0.2580 0.7710
-0.0439 -0.2583 0.7720
-0.0414 -0.2583 0.7720
-0.0389 -0.2587 0.7730
-0.0364 -0.2590 0.7740
-0.0339 -0.2593 0.7750
-0.0314 -0.2600 0.7770
-0.0289 -0.2603 0.7780
-0.0264 -0.2607 0.7790
-0.0239 -0.2614 0.7810
-0.0214 -0.2620 0.7830
-0.0188 -0.2627 0.7850
-0.0163 -0.2637 0.7880
-0.0138 -0.2650 0.7920
-0.0113 -0.2667 0.7970
-0.0087 -0.2684 0.8020
-0.0061 -0.2704 0.8080
-0.0035 -0.2727 0.8150
-0.0008 -0.2751 0.8220
0.0019 -0.2774 0.8290
0.0047 -0.2798 0.8360
0.0075 -0.2818 0.8420
0.0104 -0.2838 0.8480
0.0132 -0.2851 0.8520
0.0161 -0.2861 0.8550
0.0189 -0.2868 0.8570
0.0218 -0.2871 0.8580
0.0246 -0.2875 0.8590
0.1541 -1.6133 4.8210
0.1705 -1.6190 4.8380
0.6508 -1.6253 4.8570
0.6647 -1.6203 4.8420
0.6784 -1.6150 4.8260
0.6921 -1.6099 4.8110
0.7060 -1.6056 4.7980
0.7247 -1.6119 4.8170
0.7394 -1.6096 4.8100
0.7540 -1.6069 4.8020
0.7690 -1.6053 4.7970
0.7842 -1.6039 4.7930
0.7946 -1.5932 4.7610
0.8118 -1.5962 4.7700
0.8299 -1.6009 4.7840
0.8481 -1.6056 4.7980
0.2661 -0.2660 0.7950
0.2684 -0.2657 0.7940
0.2707 -0.2654 0.7930
0.2726 -0.2647 0.7910
0.2745 -0.2640 0.7890
0.2760 -0.2630 0.7860
0.2779 -0.2624 0.7840
0.2798 -0.2617 0.7820
0.2813 -0.2607 0.7790
0.2831 -0.2600 0.7770
0.2846 -0.2590 0.7740
0.2864 -0.2583 0.7720
0.2878 -0.2573 0.7690
0.2892 -0.2563 0.7660
0.2906 -0.2553 0.7630
0.2923 -0.2547 0.7610
0.2936 -0.2537 0.7580
0.2950 -0.2527 0.7550
0.2963 -0.2516 0.7520
0.2976 -0.2506 0.7490
0.2992 -0.2500 0.7470
0.3009 -0.2493 0.7450
0.3021 -0.2483 0.7420
0.3037 -0.2476 0.7400
0.3057 -0.2473 0.7390
0.3073 -0.2466 0.7370
0.3093 -0.2463 0.7360
0.3109 -0.2456 0.7340
0.3129 -0.2453 0.7330
0.3149 -0.2450 0.7320
0.3169 -0.2446 0.7310
0.3188 -0.2443 0.7300
0.3208 -0.2440 0.7290
0.3228 -0.2436 0.7280
0.3247 -0.2433 0.7270
0.3271 -0.2433 0.7270
0.3290 -0.2429 0.7260
0.3310 -0.2426 0.7250
0.3329 -0.2423 0.7240
0.3353 -0.2423 0.7240
0.3372 -0.2419 0.7230
0.3391 -0.2416 0.7220
0.3415 -0.2416 0.7220
0.3434 -0.2413 0.7210
0.3458 -0.2413 0.7210
0.3481 -0.2413 0.7210
0.3500 -0.2409 0.7200
0.3524 -0.2409 0.7200
0.3548 -0.2409 0.7200
0.3571 -0.2409 0.7200
0.3595 -0.2409 0.7200
0.3624 -0.2413 0.7210
0.3647 -0.2413 0.7210
-1.8800 -1.1451 3.4560
-1.8719 -1.1471 3.4620
-1.8648 -1.1498 3.4700
-1.8576 -1.1524 3.4780
-1.8520 -1.1561 3.4890
-1.8463 -1.1597 3.5000
-1.8416 -1.1640 3.5130
-1.8368 -1.1683 3.5260
-1.8320 -1.1726 3.5390
-1.8270 -1.1769 3.5520
-1.8220 -1.1812 3.5650
-1.8163 -1.1852 3.5770
-1.8106 -1.1892 3.5890
-1.8043 -1.1928 3.6000
-1.7969 -1.1958 3.6090
-1.7895 -1.1988 3.6180
-1.7820 -1.2018 3.6270
-1.7735 -1.2041 3.6340
-1.7649 -1.2064 3.6410
-1.7558 -1.2084 3.6470
-1.7472 -1.2107 3.6540
-1.7385 -1.2131 3.6610
-1.7302 -1.2157 3.6690
-1.7224 -1.2187 3.6780
-1.7149 -1.2220 3.6880
-1.7083 -1.2260 3.7000
-1.7025 -1.2306 3.7140
-1.6981 -1.2362 3.7310
-1.6948 -1.2429 3.7510
-1.6923 -1.2502 3.7730
-1.6906 -1.2581 3.7970
-1.6896 -1.2667 3.8230
-1.6889 -1.2757 3.8500
-1.6879 -1.2846 3.8770
-1.6869 -1.2936 3.9040
-1.6852 -1.3022 3.9300
-1.6824 -1.3101 3.9540
-1.6787 -1.3174 3.9760
-1.6736 -1.3237 3.9950
-1.6671 -1.3290 4.0110
-1.6592 -1.3333 4.0240
-1.6493 -1.3360 4.0320
-1.6372 -1.3370 4.0350
-1.6239 -1.3370 4.0350
-1.6091 -1.3357 4.0310
-1.5938 -1.3340 4.0260
-1.5782 -1.3320 4.0200
-1.5623 -1.3297 4.0130
-1.5471 -1.3280 4.0080
-1.5328 -1.3270 4.0050
-1.5196 -1.3270 4.0050
-1.5087 -1.3290 4.0110
-1.4992 -1.3323 4.0210
-1.4919 -1.3376 4.0370
-1.4863 -1.3446 4.0580
-1.4827 -1.3535 4.0850
-1.4801 -1.3635 4.1150
-1.4787 -1.3748 4.1490
-1.4774 -1.3863 4.1840
-1.4755 -1.3976 4.2180
-1.4727 -1.4082 4.2500
-1.4693 -1.4185 4.2810
-1.4651 -1.4281 4.3100
-1.4600 -1.4370 4.3370
-1.4537 -1.4450 4.3610
-1.4460 -1.4516 4.3810
-1.4365 -1.4566 4.3960
-1.4246 -1.4592 4.4040
-1.4104 -1.4596 4.4050
-1.3931 -1.4566 4.3960
-1.3730 -1.4506 4.3780
-1.3505 -1.4420 4.3520
-1.3260 -1.4311 4.3190
-1.3003 -1.4185 4.2810
-1.2739 -1.4049 4.2400
-1.2474 -1.3910 4.1980
-1.2216 -1.3774 4.1570
-1.1948 -1.3625 4.1120
-1.1695 -1.3489 4.0710
-1.1499 -1.3416 4.0490
-1.1312 -1.3353 4.0300
-0.1798 -0.2773 0.8370
-0.1769 -0.2770 0.8360
-0.1737 -0.2763 0.8340
-0.1704 -0.2753 0.8310
-0.1670 -0.2744 0.8280
-0.1635 -0.2730 0.8240
-0.1598 -0.2714 0.8190
-0.1560 -0.2694 0.8130
-0.1523 -0.2677 0.8080
-0.1486 -0.2657 0.8020
-0.1450 -0.2641 0.7970
-0.1417 -0.2628 0.7930
-0.1384 -0.2614 0.7890
-0.1351 -0.2601 0.7850
-0.1320 -0.2591 0.7820
-0.1289 -0.2581 0.7790
-0.1260 -0.2575 0.7770
-0.1232 -0.2568 0.7750
-0.1203 -0.2561 0.7730
-0.1176 -0.2558 0.7720
-0.1149 -0.2555 0.7710
-0.1122 -0.2551 0.7700
-0.1096 -0.2548 0.7690
-0.1069 -0.2545 0.7680
-0.1042 -0.2541 0.7670
-0.1017 -0.2541 0.7670
-0.0990 -0.2538 0.7660
-0.0965 -0.2538 0.7660
-0.0939 -0.2535 0.7650
-0.0914 -0.2535 0.7650
-0.0888 -0.2535 0.7650
-0.0863 -0.2535 0.7650
-0.0838 -0.2535 0.7650
-0.0813 -0.2535 0.7650
-0.0788 -0.2535 0.7650
-0.0764 -0.2538 0.7660
-0.0738 -0.2538 0.7660
-0.0713 -0.2538 0.7660
-0.0689 -0.2541 0.7670
-0.0664 -0.2541 0.7670
-0.0638 -0.2541 0.7670
-0.0614 -0.2545 0.7680
-0.0589 -0.2545 0.7680
-0.0564 -0.2548 0.7690
-0.0539 -0.2551 0.7700
-0.0514 -0.2551 0.7700
-0.0489 -0.2555 0.7710
-0.0465 -0.2558 0.7720
-0.0440 -0.2561 0.7730
-0.0414 -0.2561 0.7730
-0.0389 -0.2565 0.7740
-0.0364 -0.2568 0.7750
-0.0339 -0.2571 0.7760
-0.0314 -0.2575 0.7770
-0.0289 -0.2578 0.7780
-0.0264 -0.2584 0.7800
-0.0239 -0.2588 0.7810
-0.0214 -0.2594 0.7830
-0.0189 -0.2604 0.7860
-0.0163 -0.2614 0.7890
-0.0138 -0.2624 0.7920
-0.0113 -0.2641 0.7970
-0.0087 -0.2657 0.8020
-0.0061 -0.2681 0.8090
-0.0035 -0.2704 0.8160
-0.0008 -0.2727 0.8230
0.0019 -0.2750 0.8300
0.0047 -0.2773 0.8370
0.0075 -0.2793 0.8430
0.0104 -0.2813 0.8490
0.0132 -0.2826 0.8530
0.0161 -0.2836 0.8560
0.0190 -0.2843 0.8580
0.0218 -0.2846 0.8590
0.0246 -0.2846 0.8590
0.1539 -1.5954 4.8150
0.1704 -1.6021 4.8350
0.7284 -1.6044 4.8420
0.7434 -1.6024 4.8360
0.7584 -1.6004 4.8300
0.7735 -1.5987 4.8250
0.7889 -1.5977 4.8220
0.2661 -0.2634 0.7950
0.2684 -0.2631 0.7940
0.2703 -0.2624 0.7920
0.2726 -0.2621 0.7910
0.2745 -0.2614 0.7890
0.2760 -0.2604 0.7860
0.2779 -0.2598 0.7840
0.2798 -0.2591 0.7820
0.2813 -0.2581 0.7790
0.2831 -0.2575 0.7770
0.2849 -0.2568 0.7750
0.2864 -0.2558 0.7720
0.2882 -0.2551 0.7700
0.2896 -0.2541 0.7670
0.2909 -0.2531 0.7640
0.2923 -0.2522 0.7610
0.2936 -0.2512 0.7580
0.2954 -0.2505 0.7560
0.2967 -0.2495 0.7530
0.2980 -0.2485 0.7500
0.2996 -0.2478 0.7480
0.3009 -0.2469 0.7450
0.3025 -0.2462 0.7430
0.3041 -0.2455 0.7410
0.3057 -0.2449 0.7390
0.3078 -0.2445 0.7380
0.3093 -0.2439 0.7360
0.3113 -0.2435 0.7350
0.3133 -0.2432 0.7340
0.3149 -0.2425 0.7320
0.3169 -0.2422 0.7310
0.3188 -0.2419 0.7300
0.3208 -0.2416 0.7290
0.3232 -0.2416 0.7290
0.3252 -0.2412 0.7280
0.3271 -0.2409 0.7270
0.3290 -0.2406 0.7260
0.3314 -0.2406 0.7260
0.3334 -0.2402 0.7250
0.3353 -0.2399 0.7240
0.3377 -0.2399 0.7240
0.3396 -0.2396 0.7230
0.3420 -0.2396 0.7230
0.3439 -0.2392 0.7220
0.3462 -0.2392 0.7220
0.3481 -0.2389 0.7210
0.3505 -0.2389 0.7210
0.3529 -0.2389 0.7210
0.3552 -0.2389 0.7210
0.3576 -0.2389 0.7210
0.3605 -0.2392 0.7220
0.3629 -0.2392 0.7220
0.3652 -0.2392 0.7220
-1.8691 -1.1272 3.4360
-1.8611 -1.1292 3.4420
-1.8540 -1.1318 3.4500
-1.8475 -1.1347 3.4590
-1.8414 -1.1380 3.4690
-1.8363 -1.1420 3.4810
-1.8317 -1.1462 3.4940
-1.8269 -1.1505 3.5070
-1.8227 -1.1551 3.5210
-1.8183 -1.1597 3.5350
-1.8138 -1.1643 3.5490
-1.8087 -1.1685 3.5620
-1.8035 -1.1728 3.5750
-1.7978 -1.1767 3.5870
-1.7915 -1.1803 3.5980
-1.7846 -1.1836 3.6080
-1.7776 -1.1869 3.6180
-1.7696 -1.1895 3.6260
-1.7615 -1.1921 3.6340
-1.7534 -1.1948 3.6420
-1.7448 -1.1971 3.6490
-1.7366 -1.1997 3.6570
-1.7288 -1.2026 3.6660
-1.7209 -1.2056 3.6750
-1.7135 -1.2089 3.6850
-1.7069 -1.2128 3.6970
-1.7007 -1.2171 3.7100
-1.6958 -1.2223 3.7260
-1.6917 -1.2282 3.7440
-1.6883 -1.2348 3.7640
-1.6862 -1.2423 3.7870
-1.6839 -1.2499 3.8100
-1.6823 -1.2581 3.8350
-1.6805 -1.2663 3.8600
-1.6791 -1.2748 3.8860
-1.6770 -1.2830 3.9110
-1.6743 -1.2909 3.9350
-1.6711 -1.2984 3.9580
-1.6669 -1.3053 3.9790
-1.6609 -1.3109 3.9960
-1.6531 -1.3152 4.0090
-1.6435 -1.3181 4.0180
-1.6319 -1.3194 4.0220
-1.6187 -1.3194 4.0220
-1.6043 -1.3184 4.0190
-1.5887 -1.3165 4.0130
-1.5727 -1.3142 4.0060
-1.5564 -1.3116 3.9980
-1.5409 -1.3096 3.9920
-1.5263 -1.3083 3.9880
-1.5132 -1.3083 3.9880
-1.5019 -1.3099 3.9930
-1.4929 -1.3135 4.0040
-1.4860 -1.3191 4.0210
-1.4815 -1.3270 4.0450
-1.4791 -1.3368 4.0750
-1.4779 -1.3480 4.1090
-1.4783 -1.3608 4.1480
-1.4784 -1.3736 4.1870
-1.4786 -1.3867 4.2270
-1.4779 -1.3991 4.2650
-1.4769 -1.4116 4.3030
-1.4746 -1.4231 4.3380
-1.4715 -1.4339 4.3710
-1.4671 -1.4438 4.4010
-1.4612 -1.4523 4.4270
-1.4535 -1.4592 4.4480
-1.4427 -1.4631 4.4600
-1.4287 -1.4638 4.4620
-1.4115 -1.4612 4.4540
-1.3908 -1.4549 4.4350
-1.3676 -1.4457 4.4070
-1.3420 -1.4339 4.3710
-1.3155 -1.4208 4.3310
-1.2880 -1.4064 4.2870
-1.2608 -1.3919 4.2430
-1.2333 -1.3768 4.1970
-1.2032 -1.3585 4.1410
-1.1741 -1.3408 4.0870
-1.1538 -1.3329 4.0630
-1.1329 -1.3240 4.0360
-0.1841 -0.2769 0.8440
-0.1805 -0.2756 0.8400
-0.1773 -0.2749 0.8380
-0.1741 -0.2743 0.8360
-0.1710 -0.2736 0.8340
-0.1674 -0.2723 0.8300
-0.1637 -0.2706 0.8250
-0.1600 -0.2690 0.8200
-0.1562 -0.2670 0.8140
-0.1523 -0.2651 0.8080
-0.1488 -0.2634 0.8030
-0.1452 -0.2618 0.7980
-0.1417 -0.2601 0.7930
-0.1384 -0.2588 0.7890
-0.1351 -0.2575 0.7850
-0.1320 -0.2565 0.7820
-0.1289 -0.2556 0.7790
-0.1260 -0.2549 0.7770
-0.1232 -0.2542 0.7750
-0.1203 -0.2536 0.7730
-0.1176 -0.2533 0.7720
-0.1149 -0.2529 0.7710
-0.1122 -0.2526 0.7700
-0.1096 -0.2523 0.7690
-0.1069 -0.2519 0.7680
-0.1044 -0.2519 0.7680
-0.1017 -0.2516 0.7670
-0.0992 -0.2516 0.7670
-0.0965 -0.2513 0.7660
-0.0940 -0.2513 0.7660
-0.0915 -0.2513 0.7660
-0.0890 -0.2513 0.7660
-0.0864 -0.2513 0.7660
-0.0839 -0.2513 0.7660
-0.0814 -0.2513 0.7660
-0.0789 -0.2513 0.7660
-0.0764 -0.2513 0.7660
-0.0739 -0.2516 0.7670
-0.0714 -0.2516 0.7670
-0.0689 -0.2516 0.7670
-0.0664 -0.2519 0.7680
-0.0639 -0.2519 0.7680
-0.0615 -0.2523 0.7690
-0.0589 -0.2523 0.7690
-0.0565 -0.2526 0.7700
-0.0540 -0.2529 0.7710
-0.0515 -0.2533 0.7720
-0.0490 -0.2533 0.7720
-0.0465 -0.2536 0.7730
-0.0440 -0.2539 0.7740
-0.0415 -0.2539 0.7740
-0.0390 -0.2542 0.7750
-0.0365 -0.2546 0.7760
-0.0340 -0.2549 0.7770
-0.0315 -0.2552 0.7780
-0.0289 -0.2556 0.7790
-0.0264 -0.2559 0.7800
-0.0239 -0.2565 0.7820
-0.0214 -0.2572 0.7840
-0.0189 -0.2579 0.7860
-0.0163 -0.2588 0.7890
-0.0138 -0.2601 0.7930
-0.0113 -0.2615 0.7970
-0.0087 -0.2634 0.8030
-0.0061 -0.2654 0.8090
-0.0035 -0.2677 0.8160
-0.0008 -0.2700 0.8230
0.0019 -0.2726 0.8310
0.0047 -0.2749 0.8380
0.0075 -0.2769 0.8440
0.0104 -0.2785 0.8490
0.0132 -0.2802 0.8540
0.0161 -0.2811 0.8570
0.0190 -0.2815 0.8580
0.0218 -0.2818 0.8590
0.1357 -1.5533 4.7350
0.1532 -1.5730 4.7950
0.1700 -1.5822 4.8230
0.2661 -0.2608 0.7950
0.2684 -0.2605 0.7940
0.2703 -0.2598 0.7920
0.2722 -0.2592 0.7900
0.2745 -0.2588 0.7890
0.2760 -0.2579 0.7860
0.2779 -0.2572 0.7840
0.2798 -0.2565 0.7820
0.2816 -0.2559 0.7800
0.2835 -0.2552 0.7780
0.2849 -0.2542 0.7750
0.2867 -0.2536 0.7730
0.2882 -0.2526 0.7700
0.2899 -0.2519 0.7680
0.2913 -0.2510 0.7650
0.2927 -0.2500 0.7620
0.2940 -0.2490 0.7590
0.2954 -0.2480 0.7560
0.2967 -0.2470 0.7530
0.2984 -0.2464 0.7510
0.2996 -0.2454 0.7480
0.3013 -0.2447 0.7460
0.3029 -0.2441 0.7440
0.3045 -0.2434 0.7420
0.3062 -0.2428 0.7400
0.3078 -0.2421 0.7380
0.3098 -0.2418 0.7370
0.3113 -0.2411 0.7350
0.3133 -0.2408 0.7340
0.3153 -0.2405 0.7330
0.3173 -0.2401 0.7320
0.3193 -0.2398 0.7310
0.3212 -0.2395 0.7300
0.3232 -0.2392 0.7290
0.3252 -0.2388 0.7280
0.3275 -0.2388 0.7280
0.3295 -0.2385 0.7270
0.3314 -0.2382 0.7260
0.3338 -0.2382 0.7260
0.3357 -0.2378 0.7250
0.3377 -0.2375 0.7240
0.3400 -0.2375 0.7240
0.3420 -0.2372 0.7230
0.3443 -0.2372 0.7230
0.3462 -0.2369 0.7220
0.3486 -0.2369 0.7220
0.3510 -0.2369 0.7220
0.3534 -0.2369 0.7220
0.3557 -0.2369 0.7220
0.3581 -0.2369 0.7220
0.3610 -0.2372 0.7230
0.3634 -0.2372 0.7230
0.3657 -0.2372 0.7230
-1.8572 -1.1087 3.4140
-1.8492 -1.1107 3.4200
-1.8422 -1.1133 3.4280
-1.8363 -1.1165 3.4380
-1.8308 -1.1201 3.4490
-1.8263 -1.1243 3.4620
-1.8222 -1.1289 3.4760
-1.8186 -1.1337 3.4910
-1.8149 -1.1386 3.5060
-1.8111 -1.1435 3.5210
-1.8071 -1.1484 3.5360
-1.8026 -1.1529 3.5500
-1.7980 -1.1575 3.5640
-1.7928 -1.1617 3.5770
-1.7870 -1.1656 3.5890
-1.7806 -1.1691 3.6000
-1.7742 -1.1727 3.6110
-1.7667 -1.1756 3.6200
-1.7591 -1.1786 3.6290
-1.7515 -1.1815 3.6380
-1.7434 -1.1841 3.6460
-1.7356 -1.1870 3.6550
-1.7279 -1.1899 3.6640
-1.7205 -1.1932 3.6740
-1.7130 -1.1964 3.6840
-1.7065 -1.2003 3.6960
-1.7003 -1.2045 3.7090
-1.6944 -1.2091 3.7230
-1.6898 -1.2146 3.7400
-1.6856 -1.2205 3.7580
-1.6821 -1.2270 3.7780
-1.6790 -1.2338 3.7990
-1.6761 -1.2409 3.8210
-1.6736 -1.2484 3.8440
-1.6713 -1.2562 3.8680
-1.6689 -1.2640 3.8920
-1.6663 -1.2718 3.9160
-1.6631 -1.2792 3.9390
-1.6593 -1.2864 3.9610
-1.6538 -1.2922 3.9790
-1.6465 -1.2968 3.9930
-1.6374 -1.3000 4.0030
-1.6263 -1.3016 4.0080
-1.6131 -1.3016 4.0080
-1.5991 -1.3010 4.0060
-1.5835 -1.2990 4.0000
-1.5676 -1.2968 3.9930
-1.5514 -1.2942 3.9850
-1.5355 -1.2919 3.9780
-1.5209 -1.2906 3.9740
-1.5075 -1.2903 3.9730
-1.4966 -1.2922 3.9790
-1.4876 -1.2958 3.9900
-1.4815 -1.3020 4.0090
-1.4779 -1.3104 4.0350
-1.4762 -1.3208 4.0670
-1.4765 -1.3331 4.1050
-1.4779 -1.3468 4.1470
-1.4798 -1.3611 4.1910
-1.4814 -1.3754 4.2350
-1.4824 -1.3893 4.2780
-1.4831 -1.4033 4.3210
-1.4828 -1.4166 4.3620
-1.4812 -1.4290 4.4000
-1.4787 -1.4406 4.4360
-1.4747 -1.4510 4.4680
-1.4685 -1.4595 4.4940
-1.4592 -1.4650 4.5110
-1.4463 -1.4669 4.5170
-1.4295 -1.4650 4.5110
-1.4090 -1.4592 4.4930
-1.3855 -1.4501 4.4650
-1.3598 -1.4384 4.4290
-1.3328 -1.4251 4.3880
-1.3051 -1.4108 4.3440
-1.2777 -1.3965 4.3000
-1.2486 -1.3799 4.2490
-1.2131 -1.3559 4.1750
-1.1778 -1.3315 4.1000
-1.1575 -1.3237 4.0760
-0.1841 -0.2741 0.8440
-0.1809 -0.2734 0.8420
-0.1777 -0.2728 0.8400
-0.1745 -0.2722 0.8380
-0.1712 -0.2712 0.8350
-0.1676 -0.2699 0.8310
-0.1639 -0.2683 0.8260
-0.1602 -0.2666 0.8210
-0.1563 -0.2647 0.8150
-0.1525 -0.2627 0.8090
-0.1488 -0.2608 0.8030
-0.1452 -0.2592 0.7980
-0.1417 -0.2575 0.7930
-0.1384 -0.2562 0.7890
-0.1351 -0.2549 0.7850
-0.1320 -0.2540 0.7820
-0.1291 -0.2533 0.7800
-0.1260 -0.2523 0.7770
-0.1232 -0.2517 0.7750
-0.1205 -0.2514 0.7740
-0.1176 -0.2507 0.7720
-0.1149 -0.2504 0.7710
-0.1122 -0.2501 0.7700
-0.1096 -0.2497 0.7690
-0.1069 -0.2494 0.7680
-0.1044 -0.2494 0.7680
-0.1017 -0.2491 0.7670
-0.0992 -0.2491 0.7670
-0.0967 -0.2491 0.7670
-0.0940 -0.2488 0.7660
-0.0915 -0.2488 0.7660
-0.0890 -0.2488 0.7660
-0.0864 -0.2488 0.7660
-0.0839 -0.2488 0.7660
-0.0815 -0.2491 0.7670
-0.0790 -0.2491 0.7670
-0.0765 -0.2491 0.7670
-0.0739 -0.2491 0.7670
-0.0715 -0.2494 0.7680
-0.0690 -0.2494 0.7680
-0.0664 -0.2494 0.7680
-0.0640 -0.2497 0.7690
-0.0616 -0.2501 0.7700
-0.0590 -0.2501 0.7700
-0.0566 -0.2504 0.7710
-0.0541 -0.2507 0.7720
-0.0516 -0.2510 0.7730
-0.0491 -0.2510 0.7730
-0.0466 -0.2514 0.7740
-0.0441 -0.2517 0.7750
-0.0415 -0.2517 0.7750
-0.0390 -0.2520 0.7760
-0.0365 -0.2523 0.7770
-0.0340 -0.2527 0.7780
-0.0315 -0.2530 0.7790
-0.0290 -0.2533 0.7800
-0.0264 -0.2536 0.7810
-0.0239 -0.2540 0.7820
-0.0214 -0.2546 0.7840
-0.0189 -0.2553 0.7860
-0.0163 -0.2562 0.7890
-0.0138 -0.2575 0.7930
-0.0113 -0.2592 0.7980
-0.0087 -0.2608 0.8030
-0.0061 -0.2631 0.8100
-0.0035 -0.2653 0.8170
-0.0008 -0.2676 0.8240
0.0019 -0.2702 0.8320
0.0047 -0.2725 0.8390
0.0075 -0.2744 0.8450
0.0104 -0.2760 0.8500
0.0132 -0.2773 0.8540
0.0161 -0.2783 0.8570
0.0190 -0.2790 0.8590
0.0218 -0.2790 0.8590
0.1356 -1.5361 4.7300
0.1529 -1.5533 4.7830
0.1699 -1.5650 4.8190
0.2658 -0.2579 0.7940
0.2681 -0.2575 0.7930
0.2703 -0.2572 0.7920
0.2722 -0.2566 0.7900
0.2745 -0.2562 0.7890
0.2764 -0.2556 0.7870
0.2783 -0.2549 0.7850
0.2801 -0.2543 0.7830
0.2816 -0.2533 0.7800
0.2835 -0.2527 0.7780
0.2853 -0.2520 0.7760
0.2867 -0.2510 0.7730
0.2885 -0.2504 0.7710
0.2899 -0.2494 0.7680
0.2913 -0.2484 0.7650
0.2927 -0.2475 0.7620
0.2940 -0.2465 0.7590
0.2954 -0.2455 0.7560
0.2971 -0.2449 0.7540
0.2984 -0.2439 0.7510
0.3000 -0.2432 0.7490
0.3013 -0.2423 0.7460
0.3029 -0.2416 0.7440
0.3045 -0.2410 0.7420
0.3066 -0.2406 0.7410
0.3082 -0.2400 0.7390
0.3098 -0.2393 0.7370
0.3118 -0.2390 0.7360
0.3138 -0.2387 0.7350
0.3158 -0.2384 0.7340
0.3177 -0.2381 0.7330
0.3193 -0.2374 0.7310
0.3217 -0.2374 0.7310
0.3236 -0.2371 0.7300
0.3256 -0.2368 0.7290
0.3275 -0.2364 0.7280
0.3299 -0.2364 0.7280
0.3319 -0.2361 0.7270
0.3338 -0.2358 0.7260
0.3362 -0.2358 0.7260
0.3381 -0.2355 0.7250
0.3400 -0.2351 0.7240
0.3424 -0.2351 0.7240
0.3443 -0.2348 0.7230
0.3467 -0.2348 0.7230
0.3491 -0.2348 0.7230
0.3515 -0.2348 0.7230
0.3539 -0.2348 0.7230
0.3562 -0.2348 0.7230
0.3586 -0.2348 0.7230
0.3615 -0.2351 0.7240
0.3639 -0.2351 0.7240
0.3663 -0.2351 0.7240
-1.8436 -1.0895 3.3890
-1.8362 -1.0917 3.3960
-1.8304 -1.0949 3.4060
-1.8250 -1.0985 3.4170
-1.8207 -1.1026 3.4300
-1.8168 -1.1071 3.4440
-1.8139 -1.1123 3.4600
-1.8113 -1.1178 3.4770
-1.8087 -1.1232 3.4940
-1.8054 -1.1284 3.5100
-1.8020 -1.1335 3.5260
-1.7986 -1.1386 3.5420
-1.7945 -1.1435 3.5570
-1.7898 -1.1480 3.5710
-1.7840 -1.1518 3.5830
-1.7781 -1.1557 3.5950
-1.7717 -1.1592 3.6060
-1.7647 -1.1624 3.6160
-1.7577 -1.1657 3.6260
-1.7501 -1.1685 3.6350
-1.7424 -1.1714 3.6440
-1.7352 -1.1747 3.6540
-1.7279 -1.1779 3.6640
-1.7205 -1.1811 3.6740
-1.7135 -1.1846 3.6850
-1.7069 -1.1885 3.6970
-1.7003 -1.1923 3.7090
-1.6944 -1.1968 3.7230
-1.6894 -1.2020 3.7390
-1.6843 -1.2071 3.7550
-1.6799 -1.2129 3.7730
-1.6755 -1.2187 3.7910
-1.6718 -1.2251 3.8110
-1.6684 -1.2319 3.8320
-1.6648 -1.2386 3.8530
-1.6620 -1.2460 3.8760
-1.6590 -1.2534 3.8990
-1.6555 -1.2605 3.9210
-1.6518 -1.2676 3.9430
-1.6463 -1.2733 3.9610
-1.6395 -1.2782 3.9760
-1.6309 -1.2817 3.9870
-1.6202 -1.2836 3.9930
-1.6078 -1.2843 3.9950
-1.5939 -1.2836 3.9930
-1.5792 -1.2823 3.9890
-1.5633 -1.2801 3.9820
-1.5475 -1.2778 3.9750
-1.5317 -1.2756 3.9680
-1.5171 -1.2743 3.9640
-1.5040 -1.2743 3.9640
-1.4933 -1.2762 3.9700
-1.4847 -1.2801 3.9820
-1.4790 -1.2865 4.0020
-1.4760 -1.2955 4.0300
-1.4751 -1.3065 4.0640
-1.4761 -1.3193 4.1040
-1.4787 -1.3338 4.1490
-1.4816 -1.3489 4.1960
-1.4842 -1.3640 4.2430
-1.4862 -1.3788 4.2890
-1.4882 -1.3939 4.3360
-1.4892 -1.4084 4.3810
-1.4893 -1.4222 4.4240
-1.4884 -1.4354 4.4650
-1.4863 -1.4476 4.5030
-1.4819 -1.4579 4.5350
-1.4741 -1.4649 4.5570
-1.4626 -1.4685 4.5680
-1.4466 -1.4675 4.5650
-1.4269 -1.4627 4.5500
-1.4042 -1.4547 4.5250
-1.3788 -1.4437 4.4910
-1.3522 -1.4312 4.4520
-1.3252 -1.4180 4.4110
-1.2985 -1.4048 4.3700
-1.2677 -1.3868 4.3140
-1.2233 -1.3534 4.2100
-0.1897 -0.2713 0.8440
-0.1871 -0.2716 0.8450
-0.1843 -0.2716 0.8450
-0.1811 -0.2710 0.8430
-0.1782 -0.2707 0.8420
-0.1750 -0.2700 0.8400
-0.1716 -0.2691 0.8370
-0.1678 -0.2675 0.8320
-0.1641 -0.2659 0.8270
-0.1604 -0.2642 0.8220
-0.1565 -0.2623 0.8160
-0.1525 -0.2601 0.8090
-0.1488 -0.2581 0.8030
-0.1452 -0.2565 0.7980
-0.1417 -0.2549 0.7930
-0.1384 -0.2536 0.7890
-0.1353 -0.2527 0.7860
-0.1322 -0.2517 0.7830
-0.1291 -0.2507 0.7800
-0.1262 -0.2501 0.7780
-0.1233 -0.2495 0.7760
-0.1205 -0.2488 0.7740
-0.1178 -0.2485 0.7730
-0.1149 -0.2479 0.7710
-0.1122 -0.2475 0.7700
-0.1097 -0.2475 0.7700
-0.1070 -0.2472 0.7690
-0.1044 -0.2469 0.7680
-0.1018 -0.2469 0.7680
-0.0992 -0.2466 0.7670
-0.0967 -0.2466 0.7670
-0.0941 -0.2466 0.7670
-0.0916 -0.2466 0.7670
-0.0891 -0.2466 0.7670
-0.0866 -0.2466 0.7670
-0.0840 -0.2466 0.7670
-0.0815 -0.2466 0.7670
-0.0791 -0.2469 0.7680
-0.0766 -0.2469 0.7680
-0.0740 -0.2469 0.7680
-0.0715 -0.2469 0.7680
-0.0691 -0.2472 0.7690
-0.0665 -0.2472 0.7690
-0.0641 -0.2475 0.7700
-0.0616 -0.2475 0.7700
-0.0591 -0.2479 0.7710
-0.0566 -0.2482 0.7720
-0.0542 -0.2485 0.7730
-0.0517 -0.2488 0.7740
-0.0491 -0.2488 0.7740
-0.0466 -0.2491 0.7750
-0.0442 -0.2495 0.7760
-0.0416 -0.2495 0.7760
-0.0391 -0.2498 0.7770
-0.0366 -0.2501 0.7780
-0.0340 -0.2501 0.7780
-0.0315 -0.2504 0.7790
-0.0290 -0.2507 0.7800
-0.0264 -0.2511 0.7810
-0.0239 -0.2517 0.7830
-0.0214 -0.2520 0.7840
-0.0189 -0.2530 0.7870
-0.0164 -0.2540 0.7900
-0.0138 -0.2549 0.7930
-0.0113 -0.2565 0.7980
-0.0087 -0.2585 0.8040
-0.0061 -0.2604 0.8100
-0.0035 -0.2626 0.8170
-0.0008 -0.2652 0.8250
0.0019 -0.2675 0.8320
0.0047 -0.2697 0.8390
0.0075 -0.2720 0.8460
0.0104 -0.2736 0.8510
0.0133 -0.2749 0.8550
0.0161 -0.2758 0.8580
0.0190 -0.2765 0.8600
0.1190 -1.5071 4.6880
0.1352 -1.5161 4.7160
0.1525 -1.5337 4.7710
0.2658 -0.2552 0.7940
0.2681 -0.2549 0.7930
0.2703 -0.2546 0.7920
0.2722 -0.2540 0.7900
0.2745 -0.2536 0.7890
0.2764 -0.2530 0.7870
0.2783 -0.2524 0.7850
0.2801 -0.2517 0.7830
0.2820 -0.2511 0.7810
0.2835 -0.2501 0.7780
0.2853 -0.2495 0.7760
0.2871 -0.2488 0.7740
0.2885 -0.2479 0.7710
0.2899 -0.2469 0.7680
0.2913 -0.2459 0.7650
0.2931 -0.2453 0.7630
0.2944 -0.2443 0.7600
0.2958 -0.2434 0.7570
0.2971 -0.2424 0.7540
0.2987 -0.2417 0.7520
0.3000 -0.2408 0.7490
